# .PCD v0.7 - Point Cloud Data file format
VERSION 0.7
FIELDS x y z
SIZE 4 4 4
TYPE F F F
COUNT 1 1 1
WIDTH 1571
HEIGHT 1
VIEWPOINT 0 0 0 1 0 0 0
POINTS 1571
DATA ascii
5.1035795 -2.5770342 1.9070349
4.8999519 -2.5285444 1.938833
4.9000092 -2.5317411 1.9374852
4.9518714 -2.529187 1.940335
5.0950174 -2.5216937 1.9232396
5.1005821 -2.5092142 1.9200795
4.8999581 -2.4915416 1.9494052
4.9014878 -2.4951758 1.9472334
4.9684343 -2.4685011 1.9320086
5.0927391 -2.4787157 1.9358784
5.1083198 -2.4638822 1.9086347
4.8943434 -2.4212775 1.9246842
4.9279284 -2.4060326 1.9404722
4.9712644 -2.4451475 1.9019566
5.0142684 -2.4144373 1.9067886
5.0943632 -2.410114 1.9145302
5.101305 -2.4271364 1.9110159
4.8778543 -2.365943 1.919353
4.9263868 -2.3756702 1.932066
4.9560452 -2.3601441 1.9240334
5.0926919 -2.3693085 1.9287109
5.1043367 -2.3876057 1.9292473
4.8307147 -2.3433757 1.9334462
4.8999572 -2.3009701 1.9152745
4.9000096 -2.3063722 1.9132953
4.96944 -2.3212349 1.9094723
5.0041752 -2.3341513 1.9374692
5.0938249 -2.3125527 1.9108351
5.1014242 -2.3320651 1.9096005
4.8999329 -2.2516541 1.932934
4.9000797 -2.2620115 1.9291267
4.972024 -2.2890768 1.9332876
5.0918937 -2.2805123 1.9383557
5.1030369 -2.2717896 1.9170822
4.8999457 -2.2057652 1.9493411
4.9000082 -2.2092338 1.9480212
4.9601755 -2.228694 1.9329367
5.0946813 -2.2401342 1.934994
5.1021538 -2.2427168 1.9194837
4.8999653 -2.1957979 1.9491665
4.9348278 -2.1863308 1.9382212
4.9612532 -2.1793776 1.9373918
5.072422 -2.1601446 1.9320692
5.1026545 -2.1704273 1.9115572
4.8921328 -2.1383014 1.9218535
4.9234037 -2.1259747 1.9393029
5.0926476 -2.1341186 1.9079182
5.1010485 -2.1216788 1.9420512
4.8940496 -2.0818024 1.9121467
4.9319377 -2.0777628 1.9325397
4.9576483 -2.0655065 1.9250585
5.0944958 -2.0617189 1.9342495
5.1048841 -2.0743296 1.9105294
4.899971 -2.0024385 1.9110709
4.9004035 -2.0121319 1.908198
4.9565268 -2.021538 1.9058813
5.0120516 -2.0052133 1.9360533
5.091711 -2.033989 1.9250305
5.1052227 -2.0212471 1.9146678
4.8999405 -1.9864202 1.9165298
4.9000082 -1.9919715 1.9143771
4.9763951 -1.9736773 1.9243265
5.0914497 -1.9805437 1.9372821
5.1007214 -1.9790025 1.9045043
4.8999281 -1.902246 1.9419173
4.9000111 -1.9072576 1.9401221
5.0921907 -1.9179547 1.9286122
5.1031156 -1.9124703 1.913121
4.8999724 -1.879555 1.9495039
4.9030142 -1.8850923 1.9427531
4.9585781 -1.8775353 1.943758
5.0355425 -1.89327 1.9312001
5.0957236 -1.8817343 1.9164879
5.1056576 -1.8860185 1.9209807
4.8966265 -1.8263147 1.9106529
4.9029465 -1.8309121 1.9216946
4.9786644 -1.8252729 1.9163656
5.093977 -1.820314 1.9181662
5.1008801 -1.8102179 1.9221904
4.880929 -1.7846034 1.9422717
4.9027057 -1.7683406 1.9360738
4.9889555 -1.7764611 1.9123662
5.0919142 -1.7746801 1.9281969
5.1065235 -1.7696487 1.9222316
4.8937798 -1.7337186 1.921725
4.9314551 -1.7199242 1.9251726
4.9722652 -1.7267251 1.9284952
5.0914478 -1.7229955 1.9204383
5.1009378 -1.7239454 1.9322629
4.8999376 -1.6526461 1.9095106
4.9083757 -1.6572301 1.9169731
4.9601889 -1.6759342 1.9137475
5.0798779 -1.6851132 1.9202155
5.1064224 -1.6657526 1.9351475
4.8999538 -1.602234 1.9254652
4.9000034 -1.6138611 1.9216948
4.9670053 -1.6131918 1.9172919
5.0281734 -1.6152563 1.9434321
5.0911903 -1.6378161 1.9404516
5.1011457 -1.633794 1.9414628
4.8999596 -1.5525897 1.9412317
4.9004874 -1.5621176 1.9379542
5.0937214 -1.5661049 1.9363439
5.1052294 -1.5583723 1.9200077
4.8999324 -1.5450675 1.9435658
4.9001594 -1.519192 1.948787
4.9827852 -1.5332227 1.9047422
5.0465951 -1.5083709 1.9303222
5.0913305 -1.5173138 1.9299992
5.1057196 -1.513132 1.9063542
4.8859482 -1.4814932 1.9242941
4.906147 -1.4605565 1.9332222
4.9701309 -1.4546137 1.9391252
5.0465565 -1.4983115 1.9078522
5.0920458 -1.466135 1.9322796
5.1068997 -1.4659219 1.9240193
4.8882012 -1.4324653 1.9161077
4.9035654 -1.4310653 1.9269663
4.9804182 -1.4393411 1.9168031
5.0476427 -1.4425988 1.9193674
5.0952721 -1.4136944 1.9239001
5.105577 -1.4102108 1.9186695
4.8935485 -1.3563528 1.9264001
4.9233871 -1.3664277 1.9165564
4.955965 -1.3730597 1.9487188
5.0009184 -1.3999972 1.9004507
5.091907 -1.3729818 1.9337587
5.1087847 -1.3737572 1.9259863
4.8967571 -1.3158557 1.9366391
4.9093847 -1.3310014 1.91125
5.0907784 -1.3342417 1.940695
5.1057501 -1.3182222 1.9163713
4.8999262 -1.2837852 1.9028928
4.907115 -1.2661083 1.9097356
4.9743772 -1.2902987 1.932621
5.0914364 -1.2622449 1.9342935
5.1083422 -1.2793169 1.9211679
4.8999701 -1.2030073 1.9246762
4.901701 -1.2187768 1.9200883
4.9749613 -1.2023072 1.9195877
5.0937824 -1.2261027 1.9340258
5.1049089 -1.2091372 1.9305719
4.8999281 -1.152283 1.9398263
4.9271555 -1.181555 1.9285915
4.9637742 -1.1891098 1.9338578
5.0041351 -1.1811776 1.920092
5.0943642 -1.1673735 1.9119141
5.1117258 -1.1840515 1.9134152
4.8999662 -1.120194 1.9493043
4.9000101 -1.114817 1.9480093
4.9659395 -1.1256046 1.9385111
5.0913663 -1.1245019 1.9119714
5.1095734 -1.1164143 1.909049
4.8795376 -1.0590622 1.9310329
4.9133854 -1.0819124 1.9153881
4.9681654 -1.0887563 1.9404702
5.0911822 -1.0673406 1.914268
5.1019173 -1.0818057 1.9100702
4.8909392 -1.0261314 1.9343565
4.9280806 -1.0171142 1.9365633
4.9587717 -1.0294163 1.9258226
5.0932598 -1.0184172 1.91243
5.1058302 -1.005528 1.9234806
4.8792648 -0.98507696 1.9249959
4.9158072 -0.98287153 1.9323137
4.9847488 -0.98232889 1.9219798
5.0918341 -0.9859032 1.9201314
5.103488 -0.98054618 1.9257462
4.8776293 -0.93189895 1.9253578
4.9041123 -0.93056798 1.9253526
5.090899 -0.93621582 1.9153152
5.1040974 -0.91967231 1.9332321
4.8883166 -0.88031101 1.9271756
4.9121771 -0.86050737 1.9422081
4.9615393 -0.85772324 1.9283693
5.0909834 -0.88716638 1.912442
5.1035995 -0.88113374 1.9395435
4.8999224 -0.80278075 1.912081
4.9000087 -0.82414258 1.9034123
5.0929427 -0.83155024 1.9323609
5.1109505 -0.83703691 1.9362302
4.8998909 -0.75254083 1.9259282
4.9054694 -0.77198225 1.9172859
4.9744606 -0.78615165 1.9148715
5.0065536 -0.79570007 1.9466805
5.0829525 -0.7806282 1.9312725
5.1068425 -0.78285456 1.9143825
4.8999104 -0.71500725 1.9363792
4.9151788 -0.73855054 1.9353383
4.9952011 -0.73269415 1.9409158
5.009531 -0.70261002 1.910774
5.0911512 -0.71880502 1.9146178
5.1077309 -0.73362243 1.9453064
4.8999615 -0.65757442 1.9494638
4.9316616 -0.67430264 1.9378994
4.9791584 -0.66204113 1.9386916
5.0142937 -0.69278383 1.9390171
5.0900822 -0.6779753 1.922143
5.1114779 -0.66972876 1.9240286
4.8953705 -0.63658679 1.919107
4.9174104 -0.62356502 1.9419861
5.0908322 -0.62281311 1.9177842
5.1035147 -0.62868237 1.9270573
4.8957129 -0.5731197 1.9133592
4.904757 -0.58159405 1.9071052
5.0938978 -0.56372702 1.9224563
5.1095023 -0.56386364 1.9377234
4.842082 -0.50252199 1.9028853
4.8943653 -0.52043116 1.9322445
4.9068799 -0.51132661 1.9224275
5.0908279 -0.5137732 1.9399147
5.1063838 -0.51710743 1.9275836
4.8055024 -0.48939562 1.921231
4.8951139 -0.49325991 1.9169524
4.9082499 -0.47834063 1.9337263
4.9824719 -0.46890879 1.9157023
5.006259 -0.46284056 1.9014138
5.0908952 -0.4834767 1.920018
5.1106563 -0.46758711 1.9269998
4.8465624 -0.42220259 1.9158437
4.8807654 -0.41991192 1.9150279
4.9060268 -0.42490602 1.9204744
5.0211287 -0.44882584 1.9139241
5.0927877 -0.42862004 1.9145801
5.1089587 -0.42797816 1.9437494
4.8393993 -0.3539958 1.9450917
4.8883333 -0.36613715 1.916508
4.9129276 -0.36265844 1.9184749
5.0932455 -0.38251179 1.9288105
5.1019855 -0.36109316 1.9103985
4.8999348 -0.30367973 1.9068916
4.9339705 -0.32077211 1.90886
5.0796175 -0.34102815 1.9082491
5.1119785 -0.32367325 1.9221771
4.8999538 -0.25268403 1.919873
4.9203796 -0.27236596 1.9308767
4.9680767 -0.2533865 1.9066677
5.0006404 -0.27959204 1.9484284
5.089623 -0.28355479 1.9068534
5.108572 -0.26389977 1.926116
4.8999429 -0.20264837 1.932682
4.9156756 -0.23175681 1.9291426
4.9897795 -0.21375656 1.9451827
5.020679 -0.22788668 1.9472165
5.0907068 -0.23549944 1.905669
5.1054034 -0.2390171 1.9310093
4.8999119 -0.15364692 1.9452853
4.9077902 -0.17944212 1.9326762
4.9650116 -0.18326497 1.9333112
5.0202608 -0.19701815 1.9431548
5.0904708 -0.17965388 1.9254957
5.1100025 -0.18455298 1.9352679
4.8999157 -0.13897401 1.9490181
4.9000092 -0.14363667 1.9451981
4.9708285 -0.14151096 1.9396422
5.0215788 -0.13017988 1.925505
5.089962 -0.1228497 1.9130075
5.1137419 -0.13690542 1.9359341
4.8969364 -0.085515223 1.9281247
4.9116573 -0.079223342 1.9276522
5.0153217 -0.060370445 1.9250753
5.0906758 -0.078796037 1.9195557
5.1219759 -0.080030687 1.9182224
4.8969641 -0.032585151 1.930384
4.9088469 -0.018546447 1.918519
5.0939999 -0.017695392 1.9283602
5.1229048 -0.022002021 1.9230232
4.8964777 0.032050572 1.9332249
4.9141855 0.013002646 1.9185252
5.0914941 0.0247622 1.9411387
5.119422 0.024181115 1.920419
4.8949223 0.083344266 1.9355789
4.9048567 0.083167754 1.9245907
5.0910702 0.084889755 1.9380229
5.1170101 0.068847701 1.9450207
4.8888235 0.11278259 1.9330031
4.9073858 0.11589591 1.917539
5.0027447 0.13740444 1.9145526
5.0995331 0.1219417 1.9250536
5.1142826 0.13944933 1.933851
4.8914137 0.1857961 1.9268423
4.9069128 0.16431956 1.9113699
5.0210409 0.17554784 1.9259131
5.099308 0.18588582 1.9377333
5.1098495 0.18758166 1.9164326
4.894351 0.22068208 1.9403507
4.9040995 0.21726674 1.9355546
5.0944223 0.21264781 1.9137017
5.1099415 0.22425489 1.916724
4.8999381 0.29567838 1.9084728
4.9062319 0.28635919 1.9200672
5.0934138 0.27242988 1.9175076
5.1103973 0.26812458 1.9382257
4.8998919 0.34604502 1.9203575
4.9139376 0.32721788 1.9291397
4.9796505 0.32725263 1.9262034
5.0885301 0.33469689 1.93139
5.1086493 0.33979842 1.9140186
4.8998795 0.39742595 1.9324584
4.9056416 0.37195885 1.9225074
4.983459 0.37906516 1.9114119
5.0073328 0.37821341 1.9200592
5.0944939 0.36324245 1.9104087
5.1052442 0.36934456 1.9307164
4.8998733 0.42718568 1.9394548
4.9096909 0.43346936 1.9308375
4.9560671 0.41166353 1.9313933
5.0378942 0.44491911 1.917596
5.0901976 0.42365277 1.9112495
5.1139231 0.41173092 1.9255314
4.899931 0.47897857 1.9491191
4.9041176 0.46339309 1.9369833
5.0905004 0.4684974 1.9241047
5.1167827 0.47723889 1.9286525
4.8956938 0.51739371 1.9300754
4.9141302 0.51211226 1.9251124
4.9759111 0.51604223 1.9106886
5.0214214 0.5424118 1.9287133
5.0940819 0.51173514 1.9244497
5.1037555 0.51005399 1.9413202
4.8966637 0.56398773 1.9271451
4.9109564 0.57457727 1.9272332
5.0898333 0.58474195 1.9450343
5.1146913 0.57686305 1.9204967
4.8969774 0.61445391 1.9353688
4.9213262 0.61340487 1.9331999
5.0353484 0.64160919 1.9323213
5.0899382 0.62804031 1.924402
5.1118755 0.62373865 1.9304681
4.8949757 0.68965882 1.9339635
4.9143443 0.68021023 1.9242237
4.9886947 0.65050077 1.9285498
5.0401459 0.66433454 1.928618
5.0958695 0.66561818 1.9356368
5.1281776 0.69193673 1.9130409
5.1558399 0.65555429 1.9296619
4.8960438 0.72013056 1.9284759
4.9088945 0.74158359 1.9170763
5.0284958 0.71787453 1.9038222
5.0952654 0.73034012 1.9100678
5.1293035 0.72272402 1.9178293
5.1556392 0.72792292 1.9166273
4.8970823 0.78051639 1.924253
4.9139385 0.77169442 1.9170239
5.0987301 0.77538216 1.9289814
5.1299114 0.78079373 1.9148507
4.8910031 0.8277148 1.9239357
4.9033928 0.81299776 1.9183408
5.0915537 0.82703745 1.9249957
5.1261096 0.81730032 1.9177737
4.8980913 0.87071997 1.9236542
4.9033689 0.89152765 1.9337962
5.0921454 0.86999321 1.9367847
5.1225166 0.86980498 1.9223697
5.1579285 0.86291814 1.9372389
4.8967414 0.92738652 1.9111623
4.9127407 0.92880988 1.919481
5.0308185 0.91141522 1.9217647
5.0942726 0.92949349 1.9196842
5.115881 0.91977847 1.9248271
4.8998976 0.99476463 1.9055997
4.9253068 0.97266304 1.9092518
4.953403 0.98567104 1.9043207
5.0903149 0.98806822 1.9206343
5.1152134 0.9795624 1.926283
4.8998775 1.0470712 1.9168673
4.9075856 1.0194483 1.927991
5.0254941 1.0475245 1.946839
5.0906057 1.0333731 1.9416502
5.1177058 1.0335897 1.9114739
4.8998847 1.0941925 1.9269177
4.9189405 1.0796514 1.9288831
5.0806828 1.0759279 1.9136441
5.1034994 1.0744821 1.9141424
4.8998661 1.1450865 1.9378483
4.902503 1.1228774 1.926741
4.9732671 1.1382515 1.9282303
5.0120802 1.1006031 1.9208039
5.0947642 1.1402566 1.9295514
5.118783 1.1179494 1.9226718
4.8998833 1.196703 1.9488201
4.9139519 1.1953473 1.9395298
4.9864821 1.1622808 1.9406897
5.0899854 1.1664324 1.9399365
5.1159086 1.189133 1.9368813
4.8970289 1.2227225 1.9400575
4.9025302 1.2196351 1.9390967
5.0124865 1.2045817 1.9447136
5.0843506 1.2283015 1.943526
5.1028242 1.2320644 1.9415357
4.8937731 1.2841229 1.9377632
4.9097595 1.2835658 1.9250894
5.0862494 1.2554262 1.9287865
5.1187201 1.2686478 1.9378524
4.8958683 1.3267167 1.9253345
4.9169073 1.3356254 1.9272962
5.0944972 1.3150456 1.9367414
5.1011486 1.3142531 1.9043351
5.1625695 1.3174682 1.9137454
4.8898315 1.3743277 1.9268577
4.9085126 1.3803229 1.9288802
5.0168109 1.3582339 1.9328328
5.0803185 1.3851383 1.9123107
5.1031904 1.3700099 1.9362223
4.890583 1.4327011 1.9297762
4.9055533 1.4221363 1.923327
5.0940156 1.4253333 1.9266357
5.1231041 1.4236244 1.9270046
4.8975716 1.4890354 1.9323843
4.9092145 1.4787782 1.9382416
5.0920448 1.4838026 1.9323957
5.1042519 1.480539 1.9222763
4.8942442 1.5211818 1.9358722
4.9200187 1.5173457 1.9238799
4.9916945 1.5164752 1.9084111
5.0924225 1.5363063 1.9162591
5.1037092 1.5347172 1.9368536
4.8977203 1.5769613 1.9380207
4.9052677 1.5720162 1.9200108
4.97188 1.5600786 1.9239899
5.0928774 1.5816938 1.9185257
5.1348324 1.5803967 1.9137073
5.1703577 1.595685 1.9079566
4.8983631 1.6286203 1.911117
4.91084 1.6192868 1.9163833
4.9730396 1.6351123 1.9369613
5.0838232 1.6287618 1.9275024
5.1371021 1.6147633 1.9183972
4.8976526 1.6749984 1.9246545
4.9112768 1.6688477 1.9382446
5.0919962 1.6832416 1.9104092
5.1174855 1.6866201 1.9077688
5.1899896 1.6630998 1.9155967
4.8975153 1.7159584 1.9156322
4.9119759 1.7146229 1.9199239
4.953145 1.726686 1.9468009
5.0793705 1.7274878 1.933913
5.1205497 1.7206743 1.9239066
4.8966713 1.7807839 1.9103402
4.9063439 1.7727752 1.9191297
5.0794678 1.773772 1.9323145
5.1360235 1.7691872 1.9365042
5.1661758 1.7554994 1.927902
4.8998737 1.8435049 1.9061387
4.9000044 1.829149 1.9012547
5.0405226 1.8068738 1.9276042
5.0720196 1.8270948 1.9394791
5.12253 1.840205 1.9309429
4.8998852 1.8946338 1.9159739
4.9029875 1.8867921 1.9383354
5.0309038 1.8571897 1.9140434
5.0716252 1.8736525 1.9311907
5.1152191 1.8878063 1.9195021
4.844902 1.9401336 1.9027041
4.8998652 1.9428014 1.9252911
4.9094715 1.9380524 1.940109
5.0289426 1.9261332 1.9133673
5.0890565 1.9205078 1.9301639
5.1061554 1.9276128 1.9293709
5.1615295 1.9160271 1.9478163
4.8998346 1.9954515 1.9355117
4.9024892 1.9736989 1.9254031
5.0844069 1.9597317 1.9405022
5.1252079 1.97462 1.9307835
4.8998733 2.0449619 1.9449521
4.909246 2.0337217 1.9205555
5.0412855 2.0434895 1.9285301
5.0903912 2.0162737 1.9330956
5.1012702 2.0153189 1.9382892
4.8396273 2.0915365 1.9039395
4.8998733 2.0652161 1.9488125
4.9042883 2.0671105 1.9146681
4.9757748 2.0524883 1.9427788
5.0994701 2.0809858 1.9204092
5.1136322 2.0637584 1.9359568
4.8989367 2.138042 1.9266165
4.9071894 2.1333134 1.928025
4.9853516 2.1126518 1.9057939
5.0942731 2.1178532 1.9272845
5.1095638 2.1209645 1.9420149
4.8133264 2.1893506 1.9330339
4.8934374 2.1880274 1.9234015
4.9047117 2.1755509 1.9306469
4.9980059 2.150806 1.9280972
5.0994954 2.1732697 1.9401025
5.1016769 2.1684418 1.9155602
4.897099 2.2268133 1.9278299
4.9146748 2.2176001 1.9307483
5.0913186 2.2331998 1.9201999
5.1059337 2.2216856 1.9368029
4.8216825 2.2581 1.9402905
4.893115 2.2693756 1.9384449
4.9149098 2.2874081 1.9308128
5.0981092 2.2771676 1.9387028
5.1031919 2.2614944 1.9263659
4.8992758 2.3199148 1.9204615
4.9086041 2.3223889 1.9359508
5.0920753 2.3316417 1.9276826
5.1057868 2.327703 1.9076846
4.89678 2.3808584 1.9321718
4.9044337 2.3625305 1.940529
5.026948 2.3932917 1.9307199
5.0959358 2.3668408 1.9277569
5.1040764 2.3861511 1.9343933
4.8944998 2.4257147 1.9194632
4.9106112 2.4265513 1.9325495
5.0937099 2.4225011 1.9282537
5.1017618 2.4111955 1.9273927
4.8958769 2.4800084 1.9258441
4.9042902 2.4796865 1.9220648
5.0920987 2.459177 1.9215357
5.1381903 2.4855924 1.9098589
4.8946981 2.5277991 1.9303377
4.901948 2.5207243 1.9207282
5.0919638 2.5244527 1.9259257
5.1400418 2.5199668 1.9086888
5.1527572 2.5242329 1.9125123
4.8968801 2.57199 1.9139415
4.9012713 2.5824461 1.9199412
5.0947833 2.5760674 1.926672
5.100996 2.5873041 1.9458542
5.1505427 2.5587878 1.9063385
4.895606 2.6244504 1.9274733
4.9078255 2.6291399 1.9384699
5.0900669 2.620472 1.9148533
5.1202202 2.6325216 1.9199312
5.1670799 2.6304364 1.9177697
4.8960381 2.6745586 1.9224777
4.9050331 2.674324 1.9219413
5.0908084 2.6673131 1.9303731
5.1324053 2.6822696 1.9094081
5.1508436 2.6848159 1.9364898
4.8954115 2.7143488 1.9240639
4.905035 2.7336602 1.925154
5.0830832 2.7250924 1.9296025
5.1089077 2.7329998 1.9143195
5.1530142 2.7358425 1.9474521
4.8976316 2.7725954 1.9230654
4.9084215 2.7772598 1.9195635
5.0824332 2.7894289 1.9244583
5.1226501 2.7758627 1.9248302
5.1524458 2.7520142 1.9370338
4.8981133 2.8237548 1.9249843
4.9062185 2.8216183 1.9261519
5.0849624 2.817287 1.9382688
5.1234937 2.8166964 1.9246867
5.1739688 2.8047323 1.9316156
4.8998241 2.8658953 1.9021938
4.9047794 2.8812361 1.9270194
5.0961151 2.87218 1.9432671
5.1285067 2.8738623 1.9420606
4.8998747 2.9446225 1.9140348
4.9051514 2.9288034 1.9226506
5.0903091 2.9029386 1.9474323
5.1245556 2.9143262 1.9415298
5.1688299 2.9411526 1.9161189
5.2330379 2.9332261 1.9017361
4.8998075 2.9912653 1.9221532
4.9081836 2.9672303 1.9322903
4.9665365 2.9677327 1.9177498
5.0393047 2.9915192 1.9157383
5.0913868 2.9765024 1.9267595
5.1142673 2.9855118 1.9282475
4.8998165 3.0432 1.9310818
4.9058199 3.0338807 1.919789
5.0851884 3.0166619 1.938768
5.1071501 3.0135751 1.9167866
4.8998051 3.0909798 1.9393117
4.9092722 3.067245 1.9319847
5.0495863 3.0804729 1.9405574
5.0874557 3.0791149 1.9359937
5.107501 3.0824862 1.9215305
4.899858 3.1441994 1.9483465
4.924655 3.1238275 1.9406024
4.9889421 3.1238885 1.9403007
5.0912223 3.1410615 1.9395101
5.103931 3.1228473 1.9324148
4.8954172 3.170882 1.9203081
4.9099283 3.1714735 1.9164209
5.0175858 3.1862798 1.9487174
5.0943632 3.1656878 1.9334049
5.1075897 3.1730824 1.9367055
4.8971696 3.2248888 1.9150449
4.9046307 3.2327256 1.9172519
5.096405 3.228518 1.9231431
5.1029263 3.2339044 1.9166769
4.8952427 3.2697048 1.9209416
4.9034119 3.269856 1.9252777
5.077004 3.2841187 1.921705
5.1044121 3.2636499 1.9246473
4.8950548 3.3154421 1.9121144
4.9043446 3.322114 1.9091284
5.0913229 3.3103347 1.9289029
5.1041012 3.3173635 1.9320859
4.8975043 3.3851442 1.9140614
4.9032745 3.3756919 1.9088147
5.0115261 3.3989844 1.9090383
5.0940151 3.370038 1.9190431
5.1074853 3.3927879 1.9113257
4.8968601 3.4276419 1.9207671
4.905323 3.4329498 1.9178119
5.0939488 3.4276662 1.9151375
5.1028752 3.438925 1.9372109
4.8960724 3.4745963 1.9432203
4.9035397 3.4799752 1.9098361
5.0927181 3.4714825 1.933549
5.1011171 3.4551148 1.9237964
4.7513628 3.5440454 1.9409347
4.8981977 3.5159752 1.9349115
4.9026241 3.5372982 1.933144
5.0940771 3.5125945 1.9290338
5.1136274 3.520628 1.9273579
5.1589079 3.541682 1.9017329
4.8972216 3.5716662 1.9336941
4.9035091 3.5845807 1.925092
5.0936022 3.5761809 1.9255509
5.119648 3.5789492 1.9202001
5.1609111 3.5892217 1.9107623
4.8978796 3.626653 1.930192
4.9062748 3.6257946 1.9239805
5.0887461 3.6281722 1.9276388
5.1014533 3.6403282 1.9463501
5.1602726 3.626893 1.9187582
4.8987741 3.6810739 1.9312286
4.9036598 3.6851418 1.9134488
5.0264492 3.6689658 1.9220635
5.0758581 3.6677601 1.9177613
5.1192174 3.6816506 1.9088714
5.1559067 3.6638203 1.9137995
4.8967695 3.7235279 1.9195143
4.9082651 3.7209344 1.9165756
5.083499 3.7237158 1.9256655
5.1005535 3.7401371 1.9177482
5.1658816 3.7231452 1.9261189
5.2112041 3.7074552 1.9148221
4.8970966 3.7778444 1.9315337
4.9034986 3.7772608 1.9337184
5.0808158 3.7865558 1.9157851
5.1257763 3.7614596 1.9413598
5.1588659 3.7734332 1.9236243
4.8982363 3.8180051 1.9077005
4.9030609 3.815177 1.9246091
5.0717592 3.8228099 1.935143
5.1308427 3.8369536 1.9359468
5.1663141 3.8369579 1.9423432
4.8990273 3.8785033 1.9113533
4.90238 3.8686616 1.9174268
5.0773063 3.863719 1.9409121
5.1375942 3.8857648 1.9330842
5.193058 3.8736811 1.9262079
4.8982134 3.941618 1.9161847
4.9014692 3.9314954 1.9255983
5.0922813 3.9173722 1.9258661
5.12185 3.929656 1.9360613
5.1539035 3.9463379 1.9488983
4.8975434 3.9696651 1.9139872
4.9045873 3.9807043 1.9222407
5.0946064 3.9780431 1.9225153
5.1022029 3.9648957 1.940576
4.8987947 4.0261197 1.9210098
4.9039884 4.0103755 1.9327695
5.0902867 4.0246172 1.9219128
5.1094637 4.0266256 1.925792
4.8968172 4.0737343 1.9158518
4.9026661 4.0912857 1.9166057
5.0949259 4.0678053 1.9162846
5.122448 4.0762043 1.9351242
4.8960485 4.1321988 1.923243
4.9021358 4.1250305 1.927188
5.0955172 4.1328063 1.9209175
5.107151 4.1235161 1.9182055
4.8996439 4.1901855 1.9034839
4.9027147 4.1867938 1.9127738
5.0932727 4.1570921 1.9178134
5.1042557 4.1623917 1.9191675
4.8998079 4.2430067 1.9092234
4.9030771 4.2255583 1.9309708
5.0971937 4.2253847 1.9282982
5.107132 4.234107 1.9195199
4.8998117 4.2921333 1.9166446
4.9045568 4.280591 1.9237168
5.0934715 4.2700047 1.9164267
5.1042433 4.281508 1.9162543
4.899785 4.3418636 1.9241508
4.9000044 4.3304071 1.9206252
5.0889893 4.3223658 1.9235194
5.1040597 4.3232298 1.9280356
4.8998313 4.3919621 1.9316195
4.9022226 4.3801703 1.9333236
5.0935087 4.3750043 1.9243741
5.1046414 4.3838997 1.9338782
4.8997951 4.4426384 1.939345
4.9035649 4.4321475 1.9223988
5.0977225 4.4319992 1.9162381
5.1122875 4.4177666 1.9338214
4.8999071 4.4877748 1.9460045
4.9018679 4.476079 1.9315927
5.0927238 4.4752607 1.9279499
5.102644 4.4943438 1.920784
4.8997664 4.5071483 1.9481099
4.9261665 4.5269966 1.9097245
5.0930424 4.5286779 1.9172642
5.1061745 4.5188627 1.9363322
4.8980694 4.5791578 1.9353527
4.9011259 4.5764933 1.9276106
5.0920815 4.5879269 1.9308875
5.1132002 4.5627413 1.9162616
5.1571331 4.579133 1.9103987
4.8975353 4.6156158 1.9229209
4.9030528 4.6288581 1.9247597
5.091136 4.6224346 1.9169345
5.1111679 4.6398168 1.928771
5.1550164 4.6359997 1.9161128
4.8989825 4.6927366 1.9106352
4.9023991 4.6570034 1.9311602
5.0836468 4.6835766 1.9253871
5.102448 4.6791987 1.9387844
4.8982358 4.7134705 1.9301629
4.9038992 4.7214079 1.9107211
5.0921612 4.7332263 1.9360759
5.1010666 4.7274876 1.9452145
5.1712923 4.7470183 1.90205
4.8995562 4.779799 1.9364986
4.9018946 4.7903075 1.9272677
5.080256 4.7913604 1.9157674
5.1144991 4.7805405 1.9188702
5.1688147 4.7657762 1.9051535
4.8994622 4.8244781 1.9277444
4.9024506 4.8210173 1.9192479
5.0821171 4.8076806 1.9203625
5.1297994 4.8338013 1.9344076
5.1551781 4.8287416 1.9112239
4.899375 4.8729515 1.9148493
4.9002976 4.8745489 1.9097996
5.0911646 4.870594 1.9128269
5.1213923 4.8846979 1.9179134
5.1635084 4.8788424 1.9098318
4.8980441 4.9321084 1.9314063
4.9025602 4.914073 1.9137485
5.0874648 4.9213667 1.9386165
5.1056309 4.9366808 1.9145694
5.1798182 4.9083729 1.9055099
4.8990774 4.9756441 1.9326911
4.9318695 4.9977446 1.9242342
4.9843116 4.9981794 1.910882
5.0139837 4.998292 1.9252303
5.0742111 4.9690876 1.926477
5.111095 4.9632912 1.9311624
5.1754956 4.9614611 1.929384
4.8919649 5.0014253 1.9222707
4.9317846 5.0001149 1.9191434
4.9833002 5.0003638 1.9169917
5.0347013 5.0002923 1.9144893
5.0824242 5.0002232 1.9125898
5.1081524 5.0044389 1.9283946
5.1722546 5.0213289 1.9337617
5.2351227 5.0534906 1.927165
4.9680352 -5.0603724 1.9555169
5.0681729 -5.0631771 1.9927917
4.8945656 -5.0007586 1.9793453
4.9006982 -5.00002 1.9674624
4.9885178 -5.00002 1.9506423
5.0418091 -5.0000296 1.9831898
5.0504785 -5.0000286 1.9887784
5.1051855 -5.020957 1.9742281
4.8999748 -4.9850359 1.9732671
4.9000268 -4.9736943 1.978047
4.988698 -4.9999762 1.950694
5.0424337 -4.9999804 1.9835949
5.0518661 -4.9999676 1.9896173
5.1015368 -4.9842272 1.9599855
4.8999667 -4.9368639 1.9939573
4.900032 -4.923872 1.9996688
4.9553218 -4.9130077 1.9937925
5.0971518 -4.9359503 1.9768246
5.1010466 -4.9360256 1.9761791
4.8999801 -4.8539085 1.9569595
4.9000139 -4.8536706 1.9570456
5.0969601 -4.881063 1.9944953
5.1016121 -4.8639288 1.9829464
4.8999791 -4.8037395 1.9789264
4.9000139 -4.803493 1.9790192
5.0975075 -4.8305902 1.9655316
5.1039829 -4.8292027 1.9662237
4.8999896 -4.7569995 1.999774
4.9000216 -4.7574444 1.9995449
5.0980606 -4.7651234 1.9882641
5.1007433 -4.7752047 1.9809549
4.8998132 -4.7015958 1.951125
4.9000387 -4.7002754 1.9513633
4.9600916 -4.7426958 1.9542536
5.0969324 -4.7224069 1.9701741
5.101541 -4.7171354 1.9901532
4.8999748 -4.6960406 1.9532938
4.9000087 -4.6927786 1.9547291
4.9625936 -4.6533737 1.9816533
5.0976696 -4.680377 1.9893675
5.1010585 -4.6865978 1.9806556
4.8999739 -4.6446733 1.9762933
4.9000087 -4.6444101 1.9763982
5.0973482 -4.6280441 1.9677765
5.1011839 -4.6188045 1.9813577
4.8999882 -4.5931034 1.9997003
4.9000254 -4.5938096 1.9993354
5.0973701 -4.5849247 1.973161
5.1010637 -4.5668802 1.9864733
4.8999772 -4.5301538 1.9535168
4.9000134 -4.5307283 1.9531784
4.9556255 -4.5072942 1.9703907
5.0972633 -4.5240641 1.975861
5.1010542 -4.5328345 1.9751177
4.8999758 -4.4702945 1.9807136
4.9000134 -4.4708948 1.9803543
5.0949974 -4.4824686 1.9656527
5.1005602 -4.4756451 1.9813533
4.8999891 -4.4279733 1.9996791
4.9000244 -4.4284582 1.9993656
4.9574566 -4.4334626 1.992578
5.0965967 -4.4290924 1.9775873
5.1007757 -4.4227996 1.9807651
4.8999834 -4.3508668 1.9589772
4.9000206 -4.350832 1.9589208
4.9744458 -4.3624716 1.9772489
5.0963011 -4.3876457 1.9854736
5.1003256 -4.3801222 1.9737599
4.8999667 -4.3443165 1.9621348
4.9000139 -4.3452072 1.961637
5.0971656 -4.3284235 1.9743094
5.1006031 -4.3374653 1.9738144
4.8999658 -4.2779484 1.9925299
4.9000134 -4.2789812 1.991955
4.9612718 -4.279633 1.9506462
5.0980024 -4.2715077 1.9666365
5.10147 -4.281599 1.9625303
4.8859806 -4.2291708 1.9747337
4.9234576 -4.2298412 1.9707217
5.0974855 -4.225462 1.969119
5.1018915 -4.2147365 1.9738414
4.8999796 -4.150713 1.9722719
4.9000134 -4.1513214 1.9718952
4.9566636 -4.1851568 1.9803387
5.0957079 -4.1898947 1.9710661
5.1015344 -4.1718636 1.9656165
4.8999681 -4.1375299 1.9787036
4.900012 -4.138679 1.9780729
5.0968723 -4.1186004 1.9675016
5.1016059 -4.1268349 1.9675399
4.8999815 -4.0900908 1.9994628
4.9000025 -4.0895128 1.9996641
5.0979528 -4.0815897 1.9731649
5.1028309 -4.0638785 1.9621377
4.8999863 -4.00107 1.9604462
4.9000182 -4.00141 1.9602475
4.9684134 -4.0349464 1.9679089
5.0952406 -4.0308437 1.974973
5.1014404 -4.0317574 1.9612598
4.8999624 -3.9855373 1.9679523
4.9000192 -3.9868808 1.9672332
4.9543748 -3.954967 1.9878795
5.0958314 -3.9849815 1.9851621
5.1013212 -3.9708116 1.9582238
4.8999858 -3.914331 1.9996095
4.9000254 -3.9178338 1.9978912
4.969614 -3.9432414 1.9626522
5.0975094 -3.9222057 1.9700243
5.1023278 -3.9212198 1.9536526
4.8856382 -3.8741484 1.9800932
4.9244919 -3.86691 1.9632385
4.9718728 -3.8521643 1.9910259
5.0972557 -3.864208 1.9761829
5.1013494 -3.8885469 1.9553736
4.8999538 -3.8199577 1.960439
4.9000235 -3.8238332 1.9585464
5.0954266 -3.8316841 1.9649358
5.1014109 -3.8195744 1.9543695
4.899971 -3.7504518 1.9904282
4.9000278 -3.754756 1.9882969
4.9575081 -3.7979674 1.9651787
5.0958042 -3.7782974 1.9833872
5.1015511 -3.7663927 1.9942977
4.8999524 -3.731442 1.9994831
4.9000235 -3.7355137 1.997465
4.9591646 -3.7149777 1.9973574
5.0969238 -3.7090507 1.9877927
5.1019216 -3.7242851 1.9903035
4.8990135 -3.6511674 1.9510217
4.9342608 -3.6752472 1.9766099
4.9748144 -3.6692505 1.9624217
5.094718 -3.6670041 1.9733171
5.1013298 -3.664073 1.9838965
4.8999519 -3.6386313 1.9562724
4.9000244 -3.6417716 1.954669
4.9523363 -3.6304507 1.9974322
5.0964632 -3.6200335 1.9838114
5.1019211 -3.6252193 1.9799953
4.8999701 -3.5507655 1.993752
4.9000168 -3.5539012 1.9922407
4.9662442 -3.5564899 1.9899627
5.0942554 -3.5883875 1.9697812
5.1006947 -3.5841198 1.9804111
4.89995 -3.5411501 1.9982326
4.9000254 -3.5434599 1.99668
4.9669933 -3.5338998 1.9821472
5.0972109 -3.5334089 1.969502
5.1019087 -3.5228834 1.9692627
4.8963499 -3.4642668 1.9638407
4.9083686 -3.4558151 1.9547369
4.9531107 -3.4639916 1.9629314
5.0962248 -3.4673283 1.9717146
5.1012673 -3.4645236 1.9632858
4.8455095 -3.4133716 1.9644094
4.8999472 -3.438607 1.9557214
4.9000211 -3.4402084 1.9548388
4.950243 -3.4128106 1.9954475
5.0933733 -3.4377909 1.9906683
5.1019025 -3.4221163 1.9591056
4.8999548 -3.3513436 1.9916018
4.9000111 -3.3526464 1.9909382
4.9579387 -3.3952596 1.9713025
5.0080132 -3.3964455 1.9576038
5.0934176 -3.3860817 1.9856874
5.101263 -3.3644934 1.9538071
4.8999853 -3.3340383 1.9993124
4.9000235 -3.3355186 1.9986249
4.9665251 -3.3367345 1.9688966
5.0958023 -3.328721 1.9634788
5.1013751 -3.3287125 1.9510978
4.892992 -3.2660122 1.9628589
4.9218664 -3.2576871 1.9688822
4.9576969 -3.2828133 1.9631405
5.0930367 -3.2706547 1.9761631
5.101428 -3.2790313 1.9527614
4.8999414 -3.2161741 1.959162
4.9000192 -3.2204213 1.9572083
4.973165 -3.2138588 1.9807384
5.0928831 -3.239706 1.9638072
5.1011906 -3.2243872 1.9552875
4.8999739 -3.150867 1.9840448
4.900013 -3.1543751 1.9824938
4.9519672 -3.1903665 1.9662886
5.0956383 -3.1854823 1.9719775
5.1019964 -3.1721699 1.9545412
4.8422189 -3.1062207 1.9878912
4.899972 -3.1161332 1.9990978
4.900012 -3.1183195 1.9981371
4.968545 -3.1321292 1.9650056
5.0302877 -3.1356306 1.9767996
5.0958133 -3.1201906 1.9826486
5.1057844 -3.1252909 1.9732344
4.8803535 -3.0661764 1.9758736
4.9357142 -3.0758805 1.9635127
4.9633036 -3.0722189 1.9508094
5.0936379 -3.0731354 1.9742757
5.1025295 -3.0832536 1.9591534
4.899972 -3.0008488 1.9528488
4.9159689 -3.0165904 1.9584593
4.96734 -3.0095053 1.9954544
5.0957623 -3.0323043 1.9780594
5.1063223 -3.0174985 1.9853535
4.8999672 -2.9666896 1.9670738
4.900012 -2.973 1.9642711
4.9620485 -2.9893351 1.9673524
5.09482 -2.960809 1.9744014
5.1052012 -2.9786236 1.9802272
4.8999662 -2.9012253 1.9908848
4.900013 -2.9187379 1.9835702
4.9502931 -2.9428434 1.9885681
5.0224133 -2.9309506 1.9754277
5.0973606 -2.9386921 1.9755735
5.1070342 -2.9092314 1.9733546
4.8999496 -2.8814945 1.9991689
4.9000831 -2.8810697 1.9991705
4.9560094 -2.867106 1.9910054
5.0927267 -2.8854373 1.9808412
5.1029453 -2.8718123 1.9595428
4.8916273 -2.8155005 1.969228
4.9203634 -2.8364737 1.979746
4.9650984 -2.8218594 1.9785914
5.0962152 -2.8254585 1.9879987
5.1048155 -2.8288665 1.9595683
4.8999405 -2.7514894 1.9533486
4.9043102 -2.757313 1.9548476
4.9787626 -2.7615943 1.9893966
5.0941038 -2.7679143 1.9807055
5.1036854 -2.7693949 1.9567872
4.8999519 -2.701293 1.9732466
4.9000111 -2.7077222 1.9706371
4.9578505 -2.7332392 1.9725893
5.0956678 -2.7156868 1.9809989
5.1011372 -2.7132263 1.9543602
4.8999634 -2.6842365 1.9800487
4.9000092 -2.68507 1.9792166
4.9500303 -2.6708305 1.988477
5.0924454 -2.6760163 1.9851518
5.1004238 -2.6951251 1.9526732
4.8999519 -2.6272149 1.9993542
4.9000845 -2.629117 1.9985473
4.9629679 -2.6135802 1.9912905
5.0927763 -2.6333804 1.9759982
5.1001396 -2.6220653 1.956127
4.8782291 -2.5810509 1.9804559
4.9251471 -2.5813339 1.9741709
4.9657736 -2.5779428 1.969291
5.0218487 -2.57058 1.9638858
5.0937157 -2.5640359 1.9694264
5.1012955 -2.5611067 1.9627428
4.8783455 -2.5202746 1.9643558
4.9385438 -2.5227728 1.9640481
4.9703379 -2.5168715 1.9866917
5.0938358 -2.5293903 1.987994
5.1005387 -2.5375266 1.9626608
4.8999724 -2.4510119 1.9648067
4.900012 -2.4559989 1.9628925
4.9787922 -2.4834867 1.973597
5.0969253 -2.4770231 1.9702318
5.1003513 -2.4665253 1.966671
4.8999376 -2.4015307 1.9836003
4.9000125 -2.4100137 1.9802854
4.9626427 -2.4154139 1.987447
5.0924091 -2.4153264 1.9772657
5.1029253 -2.4307487 1.9788339
4.8999491 -2.3612638 1.9988426
4.9000092 -2.3654454 1.9971559
4.9545236 -2.3701119 1.9821463
5.096612 -2.3831546 1.9723682
5.100482 -2.3854599 1.9723871
4.8927016 -2.3321424 1.9895033
4.9104958 -2.3287706 1.9621699
4.9708109 -2.3203883 1.9773253
5.0963821 -2.3091803 1.9831426
5.1003065 -2.3270416 1.9786258
4.8901072 -2.2733333 1.9778252
4.9169607 -2.2716069 1.9851331
5.018486 -2.2543497 1.9509526
5.0918322 -2.2907701 1.9694445
5.1031466 -2.2688947 1.9762864
4.8992844 -2.2040572 1.9526479
4.9184079 -2.2144322 1.9647107
4.9601727 -2.2177296 1.9862036
5.0925007 -2.2162304 1.9833927
5.100553 -2.2253599 1.9859856
4.8999453 -2.1812673 1.958131
4.9000068 -2.1841664 1.9569807
4.9603291 -2.1805143 1.9739692
5.007987 -2.1749458 1.989615
5.0940332 -2.1644604 1.9804733
5.1021023 -2.1624813 1.9900322
4.8999281 -2.1021082 1.9833345
4.9000106 -2.1080942 1.9810877
4.9763222 -2.1386652 1.9929641
5.0938902 -2.1217885 1.9755223
5.1013727 -2.1365161 1.9935886
4.8999634 -2.0582018 1.999084
4.9002018 -2.0623078 1.9974023
4.9690013 -2.0697513 1.9824388
5.0229425 -2.0851593 1.998148
5.092258 -2.0783916 1.9636943
5.1020885 -2.0831671 1.9749757
4.8973045 -2.0219862 1.9673665
4.9340754 -2.0290515 1.9859648
4.9693341 -2.0078983 1.9835283
5.0915084 -2.0115287 1.965871
5.1017628 -2.0247979 1.9719731
4.8948812 -1.9641485 1.9740365
4.9055009 -1.9727969 1.961828
4.9803033 -1.9894024 1.9697733
5.0943794 -1.9735589 1.9627087
5.1037626 -1.9884704 1.9800826
4.8868675 -1.9330412 1.9720242
4.9200687 -1.9213003 1.9846883
5.076787 -1.9351771 1.9826205
5.1010194 -1.9226216 1.9753768
4.8999319 -1.8527485 1.9586489
4.9017315 -1.8547174 1.9603317
4.9598608 -1.8705946 1.9645389
5.0936155 -1.8590622 1.9683414
5.1011429 -1.8745577 1.9701724
4.8250513 -1.8403029 1.9704838
4.8999357 -1.8016052 1.9759287
4.9000053 -1.8163378 1.9708533
4.9566994 -1.8280718 1.9645048
5.0163965 -1.8237596 1.9928064
5.0916395 -1.8231047 1.9742266
5.1031032 -1.8235788 1.9725657
4.8999376 -1.7755868 1.9847705
4.9000134 -1.7836523 1.9818453
4.9794602 -1.7787089 1.9759514
5.0921335 -1.7691656 1.9599245
5.1030416 -1.7773871 1.9736633
4.8999386 -1.7241427 1.9990931
4.9002161 -1.7277771 1.9977014
5.0408773 -1.7019644 1.9819357
5.0922232 -1.7106895 1.9641912
5.1055307 -1.7236445 1.9618937
4.8850241 -1.6806505 1.9816673
4.927474 -1.6684221 1.9634622
5.0944662 -1.6636496 1.9736202
5.1043882 -1.6701769 1.9723727
4.8874407 -1.6307687 1.9746518
4.9112253 -1.6340964 1.9920909
4.9825377 -1.6330075 1.9742544
5.0944963 -1.6211134 1.9683688
5.1076932 -1.6363077 1.9610251
4.8911605 -1.5641078 1.9697484
4.9063373 -1.5855827 1.9755213
4.993331 -1.5663056 1.9656084
5.0913672 -1.571932 1.9760306
5.104043 -1.5597422 1.9567716
4.8999209 -1.5054708 1.9533131
4.9013414 -1.5023158 1.9547144
4.9947796 -1.5284851 1.9728924
5.0913763 -1.5227346 1.9807842
5.1023312 -1.5388724 1.9585478
4.8999395 -1.452338 1.9701617
4.9006577 -1.4662809 1.9657618
4.9639006 -1.4741318 1.9667825
5.0918207 -1.4718056 1.9806918
5.1011562 -1.4587649 1.9672004
4.899961 -1.4023318 1.9860815
4.9018764 -1.4110632 1.9822786
4.9730811 -1.4304588 1.9747171
5.08463 -1.4320202 1.9726465
5.1050291 -1.4170268 1.9742275
4.8999033 -1.3606048 1.999418
4.900003 -1.3832814 1.9919816
4.9755745 -1.3747013 1.9733853
5.0912266 -1.3638742 1.9810023
5.1012316 -1.3676214 1.9795916
4.8870292 -1.3415279 1.9844488
4.9135847 -1.3300526 1.9826621
4.9521241 -1.3495908 1.9929626
5.0907679 -1.3148527 1.9676677
5.1085739 -1.3363096 1.9880953
4.8920317 -1.2818971 1.9669065
4.9209332 -1.2729008 1.9665153
4.9866238 -1.2857294 1.9624984
5.0720406 -1.2717049 1.9670048
5.1012912 -1.2747967 1.9925888
4.8970637 -1.2235405 1.9763186
4.9236536 -1.2069417 1.96234
4.9812741 -1.2295617 1.9766991
5.0945482 -1.2121007 1.9812603
5.1070027 -1.2279639 1.9949045
4.8834553 -1.1700482 1.9854721
4.9186602 -1.1869326 1.962014
5.0221534 -1.1790383 1.9529527
5.0908861 -1.1634827 1.9724762
5.1070786 -1.1777964 1.9702079
4.8999605 -1.1025043 1.9545658
4.9059677 -1.1311417 1.9671342
5.0915685 -1.1178255 1.9750943
5.10287 -1.128529 1.9697956
4.8999071 -1.0515361 1.9697814
4.9022141 -1.0692081 1.972645
4.970192 -1.052412 1.9913479
5.0911756 -1.0743401 1.9606773
5.1049972 -1.0792977 1.990981
4.8999243 -1.0194376 1.9793593
4.9237924 -1.0207527 1.9813225
4.9851665 -1.0413022 1.9980379
5.0913134 -1.0263128 1.969099
5.1069431 -1.0270852 1.9577696
4.8999586 -0.95165473 1.9965879
4.9219279 -0.97515333 1.9872818
4.9772673 -0.97530198 1.9536748
5.0050097 -0.95254278 1.9850957
5.0903997 -0.98291397 1.9673846
5.1106796 -0.97060388 1.9745007
4.8999147 -0.94187003 1.9990406
4.9185581 -0.93677151 1.9891814
4.974937 -0.94115001 1.9928296
5.0059462 -0.94383669 1.9580337
5.0939879 -0.93475068 1.9629562
5.1097002 -0.91808796 1.9597615
4.8963428 -0.8754105 1.9860518
4.9107475 -0.88216448 1.9700766
5.0077605 -0.89187193 1.9553368
5.0932717 -0.87583005 1.9648619
5.1131353 -0.88559026 1.9630735
4.8959336 -0.8334595 1.9904406
4.9176049 -0.83785135 1.9681344
5.0139656 -0.83067179 1.9914627
5.0908442 -0.81792325 1.9902638
5.1056757 -0.80543262 1.9582553
4.8948689 -0.77778161 1.9744624
4.9154048 -0.78966361 1.976042
4.9772787 -0.75752211 1.9776839
5.0910616 -0.77061445 1.983935
5.10394 -0.78035665 1.9585767
4.8935437 -0.72046882 1.976254
4.9167328 -0.71708071 1.9760722
4.9827633 -0.72752857 1.9838696
5.0907087 -0.72411847 1.9831741
5.1119204 -0.70661438 1.9715172
4.8993001 -0.65314126 1.9547832
4.9075804 -0.66355956 1.9655969
5.0907903 -0.68449777 1.9724791
5.1022558 -0.68298125 1.9746652
4.8999619 -0.60188496 1.96488
4.9241543 -0.63089126 1.959065
5.0752258 -0.63381767 1.9697895
5.1167688 -0.63597906 1.9748535
4.8999557 -0.55204982 1.9786974
4.9188404 -0.5780589 1.9705219
5.0931554 -0.57252002 1.9604713
5.102798 -0.58234811 1.9861643
4.8999581 -0.50298333 1.9922967
4.9000087 -0.50226051 1.9897279
4.9653273 -0.53404021 1.9761162
5.091526 -0.52051532 1.9832373
5.1167707 -0.53959692 1.9859011
4.8999577 -0.47718203 1.9994242
4.9006891 -0.49676949 1.9898126
4.9802375 -0.47650194 1.9831672
5.090044 -0.47145611 1.9712915
5.1142511 -0.47315907 1.9782826
4.8949533 -0.41626042 1.9809036
4.9052734 -0.4266476 1.9648912
5.0143237 -0.42640853 1.9643375
5.0909724 -0.42213118 1.9665374
5.113955 -0.43828875 1.9724705
4.8851709 -0.39301002 1.9820018
4.9130878 -0.38715205 1.9846776
4.9649143 -0.3538866 1.9794021
5.09202 -0.38394612 1.9773097
5.1104794 -0.35830027 1.9887645
4.8757625 -0.31939256 1.9728837
4.9206252 -0.31657183 1.971971
4.9569969 -0.33987236 1.9610379
5.0911989 -0.33093536 1.9837079
5.1126957 -0.33698848 1.9742143
4.8913527 -0.28604737 1.9614739
4.9076147 -0.28527394 1.9882423
5.0907936 -0.27726278 1.9929187
5.1074247 -0.28046697 1.9657557
4.89674 -0.22548456 1.968026
4.9050384 -0.23128778 1.9782724
5.094789 -0.23456976 1.994354
5.1109085 -0.22601941 1.9880985
4.896266 -0.17327279 1.9927374
4.9157114 -0.18175867 1.9840145
4.9845262 -0.17006969 1.9817238
5.0198708 -0.16814399 1.9700351
5.0912099 -0.170643 1.9728057
5.1126628 -0.16410185 1.9675512
4.899909 -0.10363565 1.9581307
4.9101276 -0.13646334 1.9740224
4.9761076 -0.14313483 1.9688182
5.0911102 -0.12330958 1.9697582
5.1035218 -0.12856041 1.954989
4.8999319 -0.052792106 1.9710476
4.9071479 -0.071070224 1.9691164
4.9799647 -0.068572521 1.957473
5.0926485 -0.073530212 1.9583459
5.114274 -0.079255007 1.9750574
4.8999195 -0.0030792288 1.9837722
4.9220486 -0.0062060151 1.9930995
4.9709482 -0.018727422 1.9741265
5.0840063 -0.029512305 1.9704254
5.103117 -0.016277105 1.9765315
4.8998923 0.013502956 1.9874454
4.9124594 0.014027221 1.9912494
4.9909601 0.0032186508 1.9751611
5.0889654 0.020656578 1.9565339
5.1187892 0.026873866 1.9755766
4.899951 0.06755656 1.9992369
4.9320393 0.062946931 1.9924693
4.9750667 0.051704407 1.9996474
5.0904455 0.063878097 1.9561119
5.1096697 0.088071212 1.9874183
4.8965473 0.13127971 1.9895979
4.9192495 0.12242191 1.9683528
5.0941343 0.1348335 1.9676924
5.1069002 0.11234757 1.9916339
4.8957319 0.1768131 1.977298
4.914742 0.16206458 1.9730043
5.028266 0.18633604 1.9805222
5.0910397 0.16717643 1.9956552
5.1235352 0.18267256 1.9639676
4.895545 0.22688206 1.9823072
4.9056382 0.21507311 1.9782145
5.0034676 0.21035576 1.9597901
5.090251 0.21552089 1.9953538
5.1257629 0.22608367 1.9631677
4.8905821 0.27417004 1.9907925
4.9160881 0.26356173 1.9890729
5.0927677 0.26500982 1.9893248
5.1219282 0.2758947 1.9622751
4.8949013 0.3341077 1.9720544
4.9120359 0.31466171 1.9688363
4.9716334 0.32352591 1.9606464
5.0216045 0.31076527 1.9999287
5.0915046 0.3350113 1.9635054
5.1261749 0.32580858 1.9899797
4.886117 0.37425873 1.9811765
4.9178362 0.38405776 1.9745698
5.0923266 0.36323893 1.9858054
5.1198063 0.38539869 1.9682691
4.8961349 0.42307672 1.9670503
4.9067178 0.42290884 1.9948083
5.0950766 0.42492774 1.9863248
5.1224508 0.4125222 1.9915662
4.7939568 0.48889828 1.9820726
4.899919 0.49637225 1.9534369
4.9249487 0.47339922 1.9663593
4.9992409 0.47172737 1.9591798
5.0079222 0.4850812 1.9921778
5.0996122 0.48001158 1.9630504
5.1154633 0.47491717 1.9603252
4.899889 0.54671299 1.9651303
4.9227409 0.51432157 1.963316
4.9821806 0.52331066 1.9635823
5.0228558 0.51408005 1.9830794
5.092186 0.5271486 1.9555857
5.1185546 0.51931596 1.9876337
4.8998919 0.59536219 1.976576
4.9198608 0.58043492 1.9710212
4.9961081 0.59476614 1.9680717
5.0905552 0.57354903 1.9865342
5.111217 0.58279014 1.982986
4.8999515 0.64485866 1.9881282
4.9130745 0.62871027 1.9855624
4.965713 0.64429045 1.9823802
5.0855708 0.63498306 1.9563234
5.102766 0.63338667 1.9654579
4.8999367 0.68974131 1.9986763
4.9060593 0.65912974 1.9801338
4.9801493 0.67783642 1.9873981
5.0158839 0.69840908 1.9653864
5.0889544 0.66523951 1.9559698
5.1146688 0.67047316 1.9689493
4.8927259 0.74228168 1.972384
4.9090233 0.73862743 1.9803184
4.989285 0.72008586 1.9779882
5.0892 0.73123962 1.9748003
5.1139355 0.74211419 1.9882267
4.8967543 0.77632308 1.9730556
4.9092231 0.76732206 1.981395
5.045969 0.75087547 1.9703045
5.0944805 0.77541244 1.9764881
5.1023426 0.7765764 1.9916489
4.8917084 0.83278865 1.9828887
4.9216728 0.81347245 1.9803623
5.0891361 0.80973113 1.9861653
5.1149626 0.8132624 1.9846582
4.8976717 0.88374698 1.9629738
4.9270916 0.87188065 1.9864435
5.0913725 0.87747157 1.9789224
5.1190004 0.8716625 1.9949565
4.89293 0.92962968 1.9885874
4.9170761 0.92342061 1.9788979
5.0449724 0.92939329 1.9870336
5.0727906 0.93246216 1.9736664
5.117815 0.93762767 1.969959
4.8972068 0.97137821 1.9831066
4.9057307 0.97439909 1.9742019
5.0989428 0.97190589 1.9924326
5.1273117 0.97978961 1.9618315
4.8939509 1.0316484 1.9785576
4.9245605 1.0081232 1.9684684
5.0930576 1.0249867 1.9811885
5.1319122 1.0098369 1.9650149
5.1602778 1.0014436 1.9588977
4.8975239 1.0829446 1.9745764
4.903439 1.0850486 1.9637561
5.092597 1.0760368 1.9828606
5.1270971 1.0824403 1.9574418
4.8964882 1.1367762 1.9722021
4.9062829 1.1316054 1.9693354
5.0399609 1.1104174 1.9922135
5.0992103 1.1253093 1.9860084
5.1284914 1.1123259 1.9684268
5.1626916 1.1437273 1.9816592
4.8977208 1.1853046 1.970944
4.9099998 1.1862208 1.9866798
5.0360947 1.166739 1.9863324
5.0910602 1.1774826 1.9774745
5.1200943 1.1708128 1.9617982
5.1509194 1.1579971 1.9747678
4.8998938 1.2461456 1.959389
4.9000034 1.2319723 1.9540765
5.0906787 1.2277777 1.9705713
5.1231008 1.2183652 1.9623179
4.8998885 1.296365 1.9701593
4.9026623 1.2693503 1.986026
5.0212851 1.2775154 1.9579382
5.0924425 1.281646 1.9516698
5.125464 1.2609345 1.9883453
4.8999028 1.3441234 1.9803483
4.9052763 1.3277086 1.9656385
5.0369854 1.3459558 1.9993349
5.0907454 1.3253944 1.9770868
5.1223726 1.339884 1.9773587
5.1529222 1.3010859 1.9975089
4.8998327 1.3958502 1.9914722
4.9086943 1.386111 1.9921974
4.9990182 1.3702145 1.9521798
5.0217047 1.3554909 1.9815979
5.0895338 1.3802221 1.9735763
5.1037617 1.3771925 1.965147
4.8999014 1.4318753 1.999106
4.907105 1.409385 1.9695659
4.9643698 1.4116106 1.9906379
5.0829639 1.4181702 1.9804657
5.1096787 1.4122055 1.9743689
4.8943996 1.4600248 1.9882216
4.9056072 1.4819589 1.9672391
5.0921493 1.471565 1.9784319
5.1039066 1.4648399 1.9757656
4.8942571 1.5106539 1.9669101
4.9108105 1.5291233 1.9684966
5.0942783 1.5391703 1.9772938
5.1124096 1.5283833 1.9924676
4.8963604 1.5869859 1.9702156
4.9079103 1.5818681 1.9787304
5.0992236 1.5772685 1.9834827
5.1014934 1.5675943 1.9850762
4.8972759 1.6329746 1.9632115
4.9068956 1.6141448 1.9925318
5.0920858 1.6223854 1.9793317
5.1028113 1.6357721 1.9823534
4.8965912 1.6667314 1.9764678
4.9042454 1.673249 1.9809912
5.0941916 1.6944026 1.9770265
5.1029997 1.6609321 1.9815216
4.8985276 1.7349355 1.9764457
4.9114895 1.7358117 1.9800775
5.0942287 1.7236662 1.9793994
5.1005039 1.7110472 1.956516
4.892499 1.7736232 1.9859817
4.9076743 1.7687643 1.9769473
5.0908165 1.7656896 1.9725546
5.1036873 1.7817118 1.9882214
4.8953552 1.836006 1.9607575
4.9044504 1.8168287 1.9664204
5.081356 1.8307508 1.9747932
5.1014204 1.8195034 1.9833424
4.8933916 1.8740121 1.9806788
4.9031653 1.8747768 1.9611781
5.0849905 1.8734661 1.9811678
5.1316528 1.8747072 1.9597211
4.8904638 1.9238217 1.9675963
4.9077144 1.9378608 1.9632344
5.0810165 1.9180018 1.9743762
5.1325512 1.9285971 1.9585822
5.1758728 1.9208412 1.9602232
4.8983593 1.969056 1.961225
4.9107294 1.9739785 1.9758849
5.0354271 1.9522285 1.9911673
5.0908465 1.9885178 1.981729
5.1414499 1.9709971 1.9789405
4.8953819 2.0174189 1.9745008
4.9088354 2.0415263 1.9827437
5.0916624 2.0322571 1.9660196
5.1242943 2.0275681 1.9665079
4.8998423 2.0953393 1.9547294
4.9070716 2.0739918 1.9617171
5.0873151 2.0607066 1.968381
5.1203499 2.0797963 1.9577792
5.1713099 2.086736 1.9815131
4.8998399 2.1131234 1.9579387
4.9235907 2.1189358 1.972662
5.0884037 2.1312077 1.9618051
5.1081243 2.118618 1.9686713
4.8999195 2.1950972 1.9718604
4.9281178 2.1779566 1.9652981
5.0725336 2.1777668 1.9831488
5.1329699 2.1575809 1.9763433
4.8999128 2.2422976 1.9809699
4.9112258 2.2244854 1.9822934
4.9657578 2.2049031 1.9744563
5.0750976 2.223743 1.9800421
5.1270895 2.2325797 1.9903001
4.8998528 2.2940648 1.9910499
4.9064198 2.2606292 1.972321
5.0295787 2.2697778 1.9792023
5.0835743 2.2671545 1.9919918
5.1150084 2.2759366 1.9902496
5.1505141 2.2849512 1.9929616
4.8998985 2.3345413 1.998759
4.9222898 2.3250122 1.9764395
5.0283718 2.3076887 1.9872675
5.094099 2.3323002 1.9787004
5.1070671 2.3187151 1.9915843
4.8979769 2.37901 1.980298
4.9052572 2.3823352 1.9593784
4.9817619 2.3574281 1.9982531
5.099453 2.3872619 1.9747841
5.1058588 2.3767271 1.9697864
4.8969841 2.4417467 1.991246
4.904253 2.4254484 1.9788897
5.0941381 2.4261575 1.9769213
5.1036959 2.4202447 1.9643608
4.894835 2.4662616 1.9798427
4.9067945 2.4835324 1.9768715
5.0987883 2.4884765 1.9853264
5.1081419 2.4734659 1.9914517
4.897193 2.5246701 1.9795008
4.9068642 2.523519 1.959034
5.0916252 2.5217905 1.9839733
5.1014633 2.5222449 1.9839156
4.8456249 2.5905247 1.9871757
4.8942547 2.5741706 1.9841182
4.9030161 2.5642929 1.9570937
5.0943079 2.5773542 1.9824555
5.1044049 2.5728614 1.9824306
4.8977842 2.6162295 1.9664185
4.9098215 2.6338623 1.9628303
5.0918069 2.6079104 1.9768841
5.1017866 2.6172504 1.971977
4.8974819 2.6612635 1.96463
4.9055524 2.669013 1.9770545
5.091259 2.6852427 1.9743552
5.1059465 2.6862106 1.95929
4.8947811 2.7207842 1.9673392
4.9026256 2.732378 1.9744406
5.0973387 2.7167656 1.9744097
5.1031022 2.719209 1.990203
4.8974104 2.7690191 1.9876369
4.9074888 2.7777815 1.9826534
5.0911617 2.7687962 1.9827639
5.1008215 2.7540393 1.9701195
4.8980541 2.8224816 1.9847027
4.9020653 2.8232875 1.9759262
5.0942221 2.8336284 1.9656367
5.1117945 2.8125715 1.9754765
5.1740003 2.8359823 1.9541116
4.896564 2.8816533 1.9822621
4.904006 2.8828754 1.9753222
5.0916634 2.8676705 1.9712079
5.1272202 2.863812 1.964484
5.1524816 2.875376 1.9680294
4.8967834 2.9183404 1.9911906
4.9083958 2.9362564 1.9695519
5.0883961 2.9400582 1.9736323
5.1197968 2.9355934 1.9578452
5.1525726 2.9216762 1.9760435
5.2140312 2.9004288 1.9970225
4.8967471 2.9616914 1.9713554
4.9048767 2.9740906 1.9804826
5.0911789 2.9750752 1.9807608
5.1131482 2.9721818 1.9740875
5.1538396 2.9558854 1.9772643
4.8991551 3.028244 1.9716877
4.903266 3.0155373 1.9775312
5.0884061 3.0115378 1.9697227
5.1377544 3.012496 1.9630463
5.1722865 3.0324807 1.9828091
4.8960686 3.0810213 1.9587044
4.9054937 3.0784161 1.9634502
5.0847387 3.0751705 1.9856026
5.1235023 3.0797772 1.9823372
4.895514 3.1273682 1.9739425
4.9063044 3.1244226 1.9692551
4.9536543 3.1314969 1.9547728
5.0965815 3.1279664 1.9886994
5.1158905 3.119256 1.9693986
5.1520114 3.1097078 1.9900012
4.8998632 3.193337 1.9568769
4.9105263 3.1709127 1.9869237
5.0114617 3.1691346 1.9624857
5.085885 3.1725383 1.9899712
5.1207829 3.1711187 1.9902966
4.8998933 3.2428372 1.9653022
4.9074783 3.2278345 1.983119
5.0815458 3.2270195 1.9697192
5.1244416 3.2162008 1.9842823
5.1796165 3.2082191 1.9966509
4.8998289 3.2929382 1.9740311
4.9018173 3.2801421 1.9885921
5.0930157 3.289696 1.9720004
