# .PCD v0.7 - Point Cloud Data file format
VERSION 0.7
FIELDS x y z
SIZE 4 4 4
TYPE F F F
COUNT 1 1 1
WIDTH 1476
HEIGHT 1
VIEWPOINT 0 0 0 1 0 0 0
POINTS 1476
DATA ascii
-0.5250926 2.7774315 0.67199659
0.4760825 2.7929683 0.65670681
-0.52583241 2.8225701 0.671202
0.47594234 2.8025384 0.66418314
-0.52414584 2.8767245 0.67893583
0.47613451 2.8596199 0.65379524
-0.5242793 2.9243941 0.66248631
0.47618961 2.9204345 0.65393728
-0.52589762 2.9648647 0.65948224
0.47624582 2.9809802 0.6543119
-0.52558124 3.0182769 0.67210305
-0.49724841 3.0322862 0.65981191
-0.420739 3.0326078 0.65641105
-0.36284041 3.0324721 0.67378092
-0.31729534 3.0322568 0.66872656
-0.28018165 3.0323467 0.67669713
-0.21787894 3.0318298 0.68283927
-0.15982705 3.0337906 0.68338209
-0.13939059 3.0373268 0.66620398
-0.070464186 3.0323205 0.69005799
-0.029625831 3.0327735 0.69220626
0.027591163 3.0334568 0.69609302
0.06521821 3.0372734 0.68618321
0.12785485 3.0354977 0.6945622
0.16264084 3.0333543 0.6962558
0.21286461 3.0335078 0.69585598
0.26398483 3.0333686 0.69222891
0.31540206 3.0349281 0.67993188
0.37804765 3.0348165 0.68471104
0.41875792 3.034142 0.69235075
0.47649801 3.0055289 0.67999685
0.14314666 -2.8520617 0.70557529
0.1626825 -2.8547342 0.73290706
0.21438128 -2.8574228 0.72714335
-0.0015697611 -2.8010607 0.72001731
0.038112018 -2.8136907 0.70310092
0.080281459 -2.8251131 0.73198932
0.1396246 -2.838891 0.71425092
0.16921833 -2.8427625 0.73157352
0.21477534 -2.8469729 0.73961967
0.28178963 -2.8434842 0.73251408
0.32759577 -2.8362193 0.73231864
0.3806774 -2.8252358 0.74466181
0.41831487 -2.8074727 0.72610021
-0.061422788 -2.7661519 0.70368588
-0.020062838 -2.7910225 0.70457011
0.44403484 -2.794775 0.71888435
0.46409696 -2.7881138 0.74680841
0.50642109 -2.7582483 0.7144838
-0.11762271 -2.7264137 0.70550549
-0.096943274 -2.7450323 0.71712232
0.53509045 -2.7397685 0.74597704
0.55583662 -2.7191055 0.7141481
-0.16173422 -2.6815319 0.70797884
-0.14905801 -2.6957197 0.73225868
0.59064227 -2.6868558 0.74686909
0.60976809 -2.6618323 0.71116579
-0.21185941 -2.6111236 0.71315789
-0.19113907 -2.6429808 0.70921373
0.6417383 -2.6208837 0.7459209
0.65224099 -2.6024961 0.74723506
-0.23021144 -2.5766716 0.70901543
0.66996634 -2.571291 0.7457155
-0.25664228 -2.5096493 0.71538442
-0.24520248 -2.5428176 0.70872521
0.69165194 -2.5181966 0.74636769
-0.26701629 -2.471849 0.71417552
0.69911367 -2.4941189 0.7220571
0.70504051 -2.4729838 0.74491549
-0.27564704 -2.4269083 0.70728457
0.7146219 -2.4204431 0.7474978
-0.27982637 -2.3793962 0.70802134
0.71874726 -2.3632472 0.74654979
-0.27943015 -2.3285551 0.71374238
0.71758974 -2.3186564 0.74744385
-0.27433211 -2.2813077 0.71096325
0.71326172 -2.2809539 0.74687606
-0.26390257 -2.2313027 0.70905232
0.69772041 -2.2109699 0.74587953
0.70484233 -2.2373981 0.74387509
-0.2528297 -2.1943967 0.71645075
-0.24457514 -2.1724029 0.71062416
0.68828726 -2.1834462 0.74778974
0.70022178 -2.1959949 0.72020495
-0.2163603 -2.1168981 0.71803135
0.64892673 -2.101398 0.71782672
0.66532731 -2.130162 0.74780178
-0.20492822 -2.0910215 0.7047742
-0.18128692 -2.0618658 0.71513379
0.62163496 -2.0554662 0.74848664
0.65298152 -2.0957713 0.72013813
-0.156527 -2.0312915 0.73399234
-0.13535249 -2.0085473 0.73381805
0.58815503 -2.0092797 0.73544753
0.61178601 -2.0370581 0.7308709
2.8931911 -2.0021691 0.70376563
2.9248009 -2.0012231 0.70548481
2.9727511 -2.0013578 0.7048263
3.0202358 -2.0015323 0.70333219
3.096396 -2.0017946 0.71271765
3.1007087 -2.0016994 0.71564484
-3.1005023 -1.978312 0.70869446
-3.0666137 -1.9852401 0.72658813
-3.0286727 -1.9914143 0.73946226
-2.964545 -1.9850996 0.7320295
-2.9049268 -1.9755667 0.73539722
-2.8977504 -1.9742744 0.73849732
-0.10992038 -1.984076 0.74033105
-0.080584936 -1.9602633 0.74269462
0.54093611 -1.9655327 0.74284822
0.56067604 -1.9845109 0.7428872
2.8953538 -1.9773726 0.7265656
2.9034007 -1.9782472 0.74601573
2.9619744 -1.9997854 0.73988259
3.007906 -1.9997095 0.73749983
3.0974617 -1.9800897 0.73426795
3.1023598 -1.9812517 0.70096111
-3.1004355 -1.9272188 0.70483196
-3.0986092 -1.9230139 0.73290062
-2.9000449 -1.9170895 0.73921359
-2.8976171 -1.929518 0.74309826
-0.056192245 -1.9415674 0.72777009
-0.026465598 -1.923353 0.70828843
0.015708558 -1.90135 0.7154218
0.43798 -1.9037809 0.74310398
0.46616739 -1.9187106 0.74211037
0.50697511 -1.9442501 0.73902392
2.8973746 -1.9252838 0.73617876
2.9025588 -1.9217131 0.70214736
3.0973349 -1.9295408 0.73310995
-3.1005125 -1.8895946 0.70822823
-3.098834 -1.8635397 0.73696262
-2.9000623 -1.8698027 0.73955542
-2.8974485 -1.8713102 0.74368358
-0.0037205219 -1.8994383 0.71415246
0.030615818 -1.8943956 0.70465374
0.064705744 -1.8813319 0.70456284
0.12357946 -1.8627332 0.74264264
0.16857645 -1.8561792 0.74352407
0.22827841 -1.8539814 0.74705362
0.27202037 -1.8566693 0.74278903
0.32951826 -1.866524 0.74702668
0.36951721 -1.8769568 0.74542487
0.41084939 -1.891768 0.73906356
2.8993659 -1.8730149 0.74302721
2.9026957 -1.8692348 0.70682704
3.097403 -1.8760984 0.726349
3.1025558 -1.8501647 0.70038754
-3.1007259 -1.8279608 0.70708895
-3.0986409 -1.8323151 0.72746527
-2.900043 -1.8183725 0.73942983
-2.8971744 -1.8180776 0.74026537
0.19232297 -1.8499985 0.701976
0.23435259 -1.8497597 0.70898175
2.8996687 -1.8305116 0.74086195
2.9031317 -1.8334036 0.71781945
3.0979948 -1.8332999 0.73368418
3.1028974 -1.8110569 0.72336626
-3.1010652 -1.7819518 0.70814502
-3.0988712 -1.7691684 0.72001243
-2.9000406 -1.7699969 0.7396999
-2.8972225 -1.7825575 0.73677677
2.8996196 -1.7725034 0.73891711
2.9031649 -1.7687162 0.72975177
3.0976448 -1.775274 0.72643816
3.1028664 -1.7814269 0.70733076
-3.1010013 -1.728658 0.70742869
-3.0994744 -1.7246981 0.73110992
-2.9000516 -1.7264605 0.73989689
-2.8969026 -1.7347689 0.74197191
2.8995166 -1.7212694 0.73665631
2.9031644 -1.7332356 0.74358791
3.0979671 -1.7335758 0.73765796
3.1022708 -1.7372215 0.70715082
-3.1009905 -1.6863694 0.70387822
-3.099503 -1.6787213 0.72055703
-2.9001667 -1.6724179 0.73884368
-2.8968978 -1.6734736 0.74045777
2.8992696 -1.6787741 0.73559237
2.9035568 -1.6886593 0.74339688
3.0977845 -1.6728022 0.72575867
3.1018519 -1.6763213 0.71402955
-3.1008167 -1.6293018 0.70621198
-3.0998821 -1.6208746 0.72272873
-2.9003344 -1.6305258 0.73587883
-2.8967335 -1.6215448 0.73846567
2.8993754 -1.6256149 0.7326467
2.9032798 -1.6377975 0.74509007
3.0968108 -1.6271034 0.73740822
3.1016779 -1.6296355 0.71396244
-3.1006255 -1.5895882 0.71194017
-3.0999389 -1.5824544 0.71261787
-2.9016044 -1.5690379 0.71912181
-2.8965271 -1.5849109 0.73516113
2.8992906 -1.5686518 0.73062015
2.9027939 -1.5821092 0.73630738
3.0981555 -1.583258 0.73085368
3.1019845 -1.5641613 0.72617608
-3.1002896 -1.5273447 0.73336202
-3.0990839 -1.5055379 0.72383213
-2.9015756 -1.5187409 0.71762234
-2.8964524 -1.5358133 0.74043703
2.8999009 -1.518491 0.71191984
2.9035718 -1.5165535 0.70581239
3.0970497 -1.5215557 0.72509521
3.1011014 -1.5160806 0.72757053
-3.1043508 -1.4708979 0.71754932
-3.0988421 -1.4688959 0.72767889
-2.9015741 -1.4697652 0.71368039
-2.8963273 -1.4699932 0.73256719
2.8998976 -1.4963733 0.70603907
2.9041579 -1.4787878 0.71031201
3.0978193 -1.4752942 0.72935319
3.1005208 -1.4761837 0.71718979
-3.107825 -1.4308529 0.70015049
-3.098671 -1.423866 0.73941326
-2.9014096 -1.4168611 0.71033692
-2.8960614 -1.4279693 0.73078167
2.8997622 -1.4412322 0.70354736
2.9041524 -1.4335232 0.71976578
3.0969868 -1.4316645 0.73465741
3.1001596 -1.4124954 0.71141726
-3.1078055 -1.3791962 0.71713793
-3.0986714 -1.380163 0.73867893
-2.9014215 -1.3672171 0.70949948
-2.8966358 -1.3779037 0.71803683
2.8996103 -1.3829916 0.70415163
2.9044151 -1.3857626 0.72830927
3.0971308 -1.380502 0.72269106
3.100265 -1.3652005 0.71188629
-3.1078315 -1.3144503 0.72768241
-3.0987196 -1.3130819 0.72207963
-2.9014184 -1.3222153 0.71049225
-2.899447 -1.3204539 0.74261785
2.8994408 -1.3251319 0.70503175
2.9042158 -1.343915 0.72867727
3.0999022 -1.3291441 0.74926686
3.1002955 -1.3242395 0.70771945
-3.1060271 -1.2696662 0.72616971
-3.0986819 -1.2727294 0.7095561
-2.9013927 -1.2820458 0.71342999
-2.89943 -1.257714 0.74329078
2.8996296 -1.2624354 0.72630942
2.901427 -1.2828863 0.72090262
3.0999002 -1.2914467 0.74486637
3.100347 -1.2604597 0.72289574
-3.1078272 -1.200911 0.71535736
-3.0983806 -1.2078416 0.71648371
-2.9009657 -1.2293874 0.74550152
-2.8993866 -1.2457831 0.74406409
2.8997822 -1.2270988 0.73518205
2.9045675 -1.2246854 0.74832165
3.0999017 -1.245151 0.7394703
3.1006706 -1.2150917 0.72107548
-3.107722 -1.1905231 0.7002781
-3.0984149 -1.1748 0.72906339
-2.9009132 -1.1808398 0.74672985
-2.8993316 -1.1742306 0.74635351
2.899653 -1.1782525 0.73521113
2.9036038 -1.1612463 0.72160047
3.0999041 -1.1930091 0.73339921
3.100328 -1.178401 0.72383147
-3.0982389 -1.1267455 0.73311841
-2.9007189 -1.1188512 0.74702382
-2.8992407 -1.1063355 0.74802351
2.8994808 -1.129992 0.73266488
2.9048057 -1.1283199 0.74601912
3.0999024 -1.1419809 0.7274642
3.1004868 -1.1139309 0.70747757
-3.1057706 -1.0887601 0.71598852
-3.0981154 -1.0668629 0.73498553
-2.9000859 -1.0640689 0.7457633
-2.8992655 -1.0952029 0.74745667
2.8999536 -1.0645496 0.71486121
2.9044738 -1.064453 0.74040914
3.0999033 -1.0941577 0.72190714
3.1005063 -1.0671425 0.72684884
-3.1027193 -1.025136 0.72585893
-3.0980983 -1.0235366 0.73915446
-2.9002733 -1.0200561 0.74315071
-2.899189 -1.0163598 0.74865425
2.89977 -1.0225532 0.71036434
2.9028397 -1.0304101 0.73750108
3.0999074 -1.043065 0.71597677
3.1005654 -1.014158 0.71401173
-3.1044984 -0.95053673 0.70322675
-3.0980692 -0.98190981 0.73656094
-2.900456 -0.97590023 0.7445066
-2.899199 -0.96464241 0.74635249
2.8995316 -0.97509122 0.70857126
2.9044089 -0.96970987 0.7226873
3.0999105 -0.98300028 0.70781696
3.100683 -0.96796501 0.70857972
-3.1007273 -0.93345475 0.72991943
-3.0977373 -0.92123216 0.72136378
-2.9006748 -0.91633731 0.74433517
-2.8991194 -0.93405747 0.74931169
2.8992658 -0.9289732 0.71404397
2.9057143 -0.9209801 0.70754826
3.0999064 -0.94282365 0.70316994
3.1007428 -0.91236842 0.7256999
-3.1032324 -0.86707473 0.73260713
-3.0979681 -0.87612593 0.71833307
-2.9008636 -0.8736673 0.74549389
-2.8990116 -0.86789858 0.74902642
2.8989713 -0.87606311 0.70858902
2.905901 -0.87028784 0.71464837
3.0999215 -0.8961398 0.70083886
3.101258 -0.88577664 0.71552646
-3.1017413 -0.82697356 0.7265569
-3.097713 -0.8211273 0.71891499
-2.9011021 -0.81423771 0.74651003
-2.8991261 -0.82413924 0.74941325
2.8995826 -0.82107115 0.7105549
2.9059908 -0.82319218 0.72045994
3.0988328 -0.81413746 0.71565437
3.1007419 -0.82297367 0.74025351
-3.1000662 -0.76610339 0.73159194
-3.0978298 -0.77715623 0.72364509
-2.9012785 -0.76781976 0.743343
-2.8992121 -0.79189241 0.74953419
2.8992753 -0.76866162 0.71526855
2.9063036 -0.77411455 0.72825658
3.0993056 -0.75621879 0.74012327
3.1007872 -0.7675215 0.70667768
-3.1010737 -0.72525847 0.73231262
-3.0977855 -0.72916639 0.7230472
-2.9014704 -0.72380996 0.74551487
-2.8972416 -0.73415411 0.72491062
2.8991735 -0.72641802 0.71724641
2.9062991 -0.71992934 0.73651618
3.0966635 -0.73695773 0.74454916
3.1008549 -0.7344864 0.71741742
-3.1003976 -0.68191844 0.73443019
-3.0977747 -0.68623096 0.73662519
-2.9017239 -0.66410106 0.74592376
-2.8977699 -0.68534696 0.70761025
2.8993616 -0.67308003 0.72286397
2.9062352 -0.6702897 0.74318504
3.0990157 -0.66522241 0.70881832
3.101028 -0.65685749 0.71200502
-3.1002078 -0.633376 0.73737621
-3.0973897 -0.63185066 0.73259801
-2.9018722 -0.61993253 0.74302661
-2.8972259 -0.61660731 0.72760177
2.8989427 -0.62035912 0.7233122
2.9061034 -0.6184454 0.7389791
3.0993423 -0.61502302 0.72090626
3.1009958 -0.63871127 0.70401639
-3.100625 -0.57612932 0.73950505
-3.0977983 -0.5846799 0.73539901
-2.9020755 -0.57520717 0.74580383
-2.8998153 -0.58854675 0.70144075
2.8993971 -0.57574385 0.72407937
2.9063263 -0.57426047 0.74374092
3.0993466 -0.56103724 0.73707241
3.1010489 -0.55586791 0.72668123
-3.1008248 -0.53094286 0.74274182
-3.0974345 -0.54210776 0.72921252
-2.9023552 -0.52757204 0.74201465
-2.8998694 -0.53669369 0.70875698
2.8995976 -0.52807105 0.72994065
2.9068553 -0.52176547 0.74264157
3.0989513 -0.52799666 0.74437708
3.1010518 -0.51469028 0.70595348
-3.1002219 -0.48812801 0.74693775
-3.0987015 -0.46917838 0.72344124
-2.9024668 -0.47232258 0.74354631
-2.8998957 -0.48321149 0.71711057
2.8988128 -0.46725896 0.71392715
2.9060917 -0.47746056 0.73825455
3.0993485 -0.46843958 0.7092576
3.1012862 -0.4601838 0.73953223
-3.1004009 -0.43462023 0.74754453
-3.098408 -0.42114812 0.71945751
-2.9027395 -0.42596996 0.74244595
-2.8999667 -0.44001958 0.72496247
2.8986897 -0.4218677 0.71863019
2.9063864 -0.42309028 0.74139935
3.0992193 -0.41670966 0.71270764
3.1011758 -0.42121565 0.71267033
-3.1061628 -0.37035608 0.71841848
-3.097306 -0.39314228 0.74484396
-2.9029655 -0.37925327 0.74253321
-2.8999419 -0.37609214 0.73254025
2.8992853 -0.37070906 0.71257639
2.9063163 -0.377049 0.74211317
3.0996981 -0.3613151 0.73528409
3.1015124 -0.38355392 0.7189213
-3.1066217 -0.33616999 0.717664
-3.0984659 -0.33881566 0.71939707
-2.9031205 -0.3200835 0.74589086
-2.8999321 -0.31451201 0.7404536
2.8993893 -0.3217214 0.7208001
2.9039545 -0.32548049 0.73523664
3.0999198 -0.34609571 0.74904317
3.1010046 -0.31249136 0.72944677
-3.1072998 -0.28450334 0.7287122
-3.0973153 -0.28123856 0.73943394
-2.9033136 -0.27133679 0.74203306
-2.8998978 -0.29560375 0.74264443
2.8991487 -0.26738551 0.72845083
2.9043884 -0.27795956 0.73897952
3.0999117 -0.29626459 0.74174941
3.1018152 -0.27740079 0.72361839
-3.1063285 -0.21668088 0.72324646
-3.0977015 -0.2193419 0.71759301
-2.9037809 -0.22683389 0.7379722
-2.8997149 -0.24432015 0.74926525
2.898509 -0.21433023 0.73108959
2.9042504 -0.23051378 0.73867548
3.0999217 -0.24474844 0.73422241
3.1013217 -0.21823877 0.71163058
-3.1008935 -0.16838469 0.7312932
-3.0969322 -0.16464174 0.71985084
-2.9037728 -0.17967805 0.74478525
-2.8983712 -0.1773065 0.73219776
2.8983991 -0.17001356 0.73367077
2.9039886 -0.17296906 0.73567194
3.099925 -0.17984977 0.72334397
3.1014919 -0.17788979 0.72421646
-3.1018581 -0.11635429 0.72872353
-3.0966907 -0.12204526 0.73273808
-2.903923 -0.11829383 0.74236798
-2.8972754 -0.11797705 0.7094686
2.8982368 -0.12337915 0.73665047
2.9033637 -0.11875055 0.73016989
3.0999236 -0.1449881 0.71827531
3.1015806 -0.11759937 0.73011601
-3.1009433 -0.075686112 0.73453748
-3.0964427 -0.073739201 0.73616672
-2.9044297 -0.079451457 0.73969495
-2.8971753 -0.082524665 0.71371138
2.8987744 -0.06866625 0.734487
2.9063802 -0.060481798 0.71064401
3.0999255 -0.094486579 0.71094626
3.1002092 -0.079527125 0.72198713
-3.1004226 -0.035710931 0.73711544
-3.096952 -0.034184277 0.73724985
-2.9046273 -0.017241277 0.74394417
-2.8970747 -0.01809421 0.71636891
2.8973739 -0.026655879 0.71700704
2.906908 -0.024823364 0.71384478
3.0999269 -0.046540163 0.70400363
3.1002057 -0.028105117 0.71413326
-3.10041 0.023197014 0.73883259
-3.0970469 0.02558424 0.73153406
-2.9045928 0.029412441 0.7379455
-2.8968215 0.020967152 0.71905887
2.8975382 0.021377463 0.71588063
2.9078636 0.037330016 0.71597123
3.0999284 0.0029195258 0.7012623
3.1004715 0.027741969 0.72114104
-3.10004 0.070952222 0.73749989
-3.0967968 0.069279276 0.73425466
-2.9051466 0.070671976 0.74278599
-2.8968108 0.069321923 0.7140522
2.8973861 0.073338851 0.72372198
2.9080703 0.078964934 0.71634406
3.0998063 0.089156963 0.72757113
3.1003246 0.071640819 0.72491038
-3.1000719 0.12007514 0.74255586
-3.0973072 0.13356572 0.73845869
-2.9049857 0.1190694 0.74252146
-2.8990283 0.13397427 0.7007516
2.8972626 0.12546583 0.73119175
2.9079237 0.11339787 0.72123837
3.098227 0.12366979 0.72988713
3.1001229 0.12822543 0.72664678
-3.1000926 0.16567919 0.74640548
-3.0964422 0.17419761 0.73434687
-2.9052515 0.17963216 0.74116325
-2.8992536 0.17538144 0.70538926
2.8971496 0.1787654 0.73857832
2.9079542 0.16879183 0.72938049
3.0991662 0.18803355 0.71915197
3.1001482 0.17268831 0.72849643
-3.1000998 0.22396441 0.73936057
-3.0968928 0.22831002 0.73366547
-2.9057117 0.22067259 0.73885238
-2.8990676 0.21768177 0.71090639
2.8978195 0.2368606 0.72298139
2.9066079 0.22388098 0.71489406
3.0984511 0.22857323 0.71464503
3.1001883 0.23754546 0.73789942
-3.1010535 0.27116069 0.7345047
-3.0969782 0.27261156 0.73283803
-2.9056096 0.27003321 0.74594676
-2.8990524 0.27244994 0.71879578
2.895108 0.27645054 0.73798168
2.9093251 0.29120845 0.74447215
3.0999193 0.28779498 0.74948835
3.1002402 0.27735707 0.7343365
-3.1003366 0.32183701 0.72689772
-3.0969553 0.32085761 0.73238707
-2.9060807 0.32615665 0.73712128
-2.8989763 0.32722142 0.72551203
2.8971138 0.31624311 0.72541511
2.9093637 0.31521916 0.74045479
3.0999339 0.30229968 0.74703175
3.1003292 0.32078704 0.73621321
-3.100076 0.36454171 0.73294604
-3.097826 0.3642835 0.73375815
-2.9063678 0.37064278 0.74233449
-2.8989718 0.37327167 0.73211026
2.8971024 0.3713569 0.73048025
2.9087925 0.37114125 0.74096042
3.0999351 0.35734099 0.73588341
3.1003504 0.38037717 0.72097194
-3.1000514 0.4143199 0.73542452
-3.0975735 0.42280006 0.73818088
-2.90609 0.41613251 0.74091828
-2.8985834 0.42425519 0.73968565
2.895421 0.42157272 0.71884096
2.90892 0.4413681 0.73599899
3.099936 0.40196684 0.72816396
3.1001987 0.42259783 0.72373021
-3.1000478 0.46325529 0.73752308
-3.0974903 0.4812133 0.73240817
-2.9067259 0.47586542 0.74109912
-2.8987095 0.47130424 0.7459693
2.89799 0.47263831 0.72718728
2.9049478 0.46935439 0.71608025
3.0999382 0.48682877 0.71239877
3.1004646 0.46394047 0.71950829
-3.1000662 0.53159928 0.72181833
-3.0977771 0.53132898 0.73059338
-2.9068224 0.52036792 0.73977387
-2.8977933 0.50994372 0.73373568
2.8937514 0.52337813 0.71919572
2.9086702 0.52884179 0.7412374
3.0999384 0.5029065 0.70925361
3.1004982 0.52051032 0.72156745
-3.1000686 0.57242054 0.72810233
-3.0978701 0.58098412 0.73394251
-2.9068608 0.57963705 0.73991358
-2.8975663 0.57777321 0.71464097
2.8959904 0.56826675 0.71881819
2.9057202 0.56591213 0.7222743
3.0999393 0.5518086 0.70098722
3.1006389 0.57860255 0.73744655
-3.1001148 0.6220181 0.73038757
-3.095331 0.62284213 0.71773028
-2.9078948 0.62289286 0.73842525
-2.8991301 0.63769281 0.72085834
2.8959675 0.63701272 0.72826314
2.9082222 0.61263859 0.73434353
3.0993276 0.63230401 0.72359675
3.1006474 0.61797953 0.73400033
-3.1000717 0.67206442 0.71056443
-3.0967584 0.68480027 0.72579956
-2.9074714 0.6725384 0.74440742
-2.8963034 0.67046952 0.71705365
2.8939567 0.67822057 0.72362697
2.9077053 0.6675477 0.74044436
3.0994248 0.67507124 0.71723872
3.1006572 0.68072295 0.74071658
-3.1001043 0.72376227 0.71280587
-3.0973384 0.72257328 0.71884775
-2.9076717 0.72345334 0.73748958
-2.8968523 0.71394497 0.70576417
2.8955045 0.72215164 0.73738396
2.9050646 0.7230491 0.73480546
3.0999422 0.74354511 0.74725521
3.1007166 0.72856659 0.73498607
-3.1000547 0.77046311 0.71497488
-3.0965109 0.7696619 0.72352719
-2.908608 0.77664465 0.74376625
-2.8954713 0.78367162 0.7153163
2.8937812 0.76687628 0.73202437
2.9059973 0.76665032 0.73694658
3.0999429 0.7528131 0.74538565
3.1003754 0.78205341 0.73421264
-3.1000509 0.81359053 0.7128014
-3.0957935 0.81565744 0.72867852
-2.9075563 0.82345831 0.7374534
-2.8985295 0.80807871 0.72290283
2.8934183 0.83136654 0.7386117
2.9052472 0.81005263 0.73819023
3.0999444 0.8371008 0.72746283
3.1004839 0.82648981 0.73017812
-3.1000519 0.86468446 0.71498442
-3.0963707 0.86241299 0.71788538
-2.9083302 0.87658679 0.74290097
-2.8962941 0.87769312 0.70650685
2.8922129 0.8794418 0.73844671
2.9027147 0.88424444 0.72747409
3.0999455 0.85261667 0.72398949
3.1004093 0.88013232 0.71623534
-3.1000392 0.91507447 0.71327603
-3.0953498 0.932244 0.73899162
-2.9080014 0.9203527 0.73457605
-2.8963537 0.93900138 0.70767927
2.8924165 0.91932523 0.73461324
2.9027236 0.92262143 0.72169769
3.0999465 0.94387984 0.70464182
3.100589 0.92554563 0.7148931
-3.10006 0.966757 0.71538281
-3.0965254 0.98018563 0.70917296
-2.9082232 0.97565329 0.74268699
-2.8977447 0.98631227 0.70764399
2.8954306 0.97481978 0.72695601
2.9027948 0.97648686 0.72831279
3.0999482 0.95222211 0.70291936
3.1009696 0.96835643 0.74182987
-3.1000397 1.0128992 0.71728456
-3.0954142 1.0263804 0.74395192
-2.9083955 1.0189606 0.73507529
-2.896791 1.0205859 0.71090704
2.8909206 1.0209335 0.7282387
2.9028666 1.0299696 0.7398147
3.0995722 1.012053 0.70322978
3.1010356 1.0261974 0.74330115
-3.100049 1.0609899 0.71895689
-3.0964103 1.0612803 0.7173295
-2.9086266 1.0768113 0.74061728
-2.8972363 1.0820382 0.71199417
2.8951671 1.082094 0.73097104
2.9028604 1.0692823 0.73264903
3.0999441 1.0753188 0.74952561
3.1005883 1.0781794 0.74556196
-3.1000566 1.1135459 0.72033048
-3.0954993 1.1285957 0.73863417
-2.9078088 1.1142995 0.73310721
-2.8970733 1.1363015 0.71556437
2.8908234 1.1255417 0.73775721
2.9030709 1.1297425 0.73193198
3.099952 1.1190861 0.7381292
3.1007531 1.1188419 0.7370851
-3.1000516 1.1587317 0.72183263
-3.0974855 1.1753645 0.72273844
-2.9090266 1.1744437 0.74201453
-2.8973999 1.175076 0.71744764
2.896986 1.1835651 0.72776711
2.9029264 1.1703106 0.72777295
3.0999537 1.19417 0.7200948
3.1004181 1.1692331 0.72708762
-3.1000469 1.2119023 0.72389227
-3.0953343 1.2206191 0.74185747
-2.9091949 1.2182927 0.73521656
-2.8973141 1.2219788 0.71696234
2.8916473 1.2125878 0.71865237
2.9029379 1.227123 0.7372539
3.0999522 1.201081 0.71854144
3.1006637 1.2276568 0.71130651
-3.1000228 1.2650952 0.7255255
-3.0972226 1.2640131 0.72892165
-2.9089799 1.2772191 0.74064612
-2.8969376 1.2747338 0.72374809
2.8942599 1.2831995 0.72005153
2.9035256 1.2917273 0.73696136
3.0999553 1.2669816 0.70271611
3.1004438 1.2742014 0.70872939
-3.1012726 1.3173808 0.72256166
-3.0969639 1.3262776 0.73274904
-2.9095159 1.3094569 0.73038185
-2.8970428 1.3324562 0.73169219
2.8912048 1.3187265 0.72714955
2.9025483 1.3200947 0.70934856
3.0999541 1.3012118 0.70077646
3.1010895 1.3067231 0.70961165
-3.1010146 1.3795522 0.71242744
-3.0971859 1.3797435 0.7320174
-2.9098454 1.3774393 0.74290711
-2.8969467 1.3807827 0.73455524
2.8915131 1.3761361 0.72606301
2.9028156 1.3602792 0.73501801
3.0995698 1.3690507 0.70429599
3.1003335 1.3907773 0.70835853
-3.1013074 1.4280856 0.71248055
-3.0969419 1.4351103 0.73248106
-2.9095631 1.4369118 0.71211302
-2.8970487 1.428817 0.73032105
2.8937151 1.418179 0.73683149
2.9028561 1.4228286 0.73617077
3.0991535 1.425288 0.7159251
3.1000714 1.4356556 0.7017802
-3.1014082 1.4792149 0.71150994
-3.0971231 1.4832814 0.73694813
-2.910192 1.465035 0.74274588
-2.8968744 1.4776008 0.73977864
2.8903146 1.4709115 0.72487754
2.9077868 1.4906819 0.71786797
3.0991545 1.4705434 0.72163856
3.1001582 1.4773583 0.70685095
-3.1022849 1.5238001 0.71293586
-3.0964327 1.5358351 0.73603433
-2.9105754 1.5451171 0.73610878
-2.8968325 1.5257219 0.73545146
2.8902926 1.5190887 0.72787893
2.9071538 1.5337621 0.70932102
3.0991688 1.5243607 0.72825527
3.1002035 1.5308039 0.70563465
-3.1023393 1.5652857 0.71539676
-3.0975544 1.5783952 0.7183457
-2.9104028 1.5555971 0.73677814
-2.8968449 1.5853103 0.74412841
2.8899639 1.5662713 0.74178654
2.9078741 1.5623097 0.71845484
3.0991609 1.5754576 0.73494768
3.1002402 1.5853394 0.70428532
-3.1022825 1.6189594 0.71351379
-3.098484 1.6193566 0.72075772
-2.9108989 1.6336563 0.74275392
-2.8969376 1.6341897 0.73995101
2.8884239 1.6125346 0.71776283
2.9102554 1.6268604 0.71713293
3.0991673 1.6189749 0.73837483
3.1002808 1.6231227 0.7053349
-3.103754 1.6704268 0.72834122
-3.0983355 1.674034 0.72337073
-2.9118543 1.6859028 0.72456229
-2.8966417 1.6825737 0.74286485
2.8880906 1.6714511 0.71155137
2.9077413 1.6836619 0.71989155
3.0992322 1.6724486 0.7270838
3.1008227 1.6790251 0.70577663
-3.103018 1.7226446 0.70896441
-3.0982947 1.7180524 0.7248497
-2.9111705 1.717119 0.74246395
-2.8972428 1.7315031 0.73893023
2.8876207 1.7124712 0.74138027
2.9108341 1.7176942 0.71741122
3.0991535 1.7327273 0.71013856
3.1012897 1.7354388 0.70503008
-3.1037085 1.7700397 0.71594095
-3.098372 1.7700989 0.72708023
-2.9117522 1.7879667 0.73881912
-2.8967991 1.7808981 0.73477185
2.8875809 1.7623326 0.72509354
2.9118066 1.7679231 0.72537971
3.0991476 1.7852832 0.70739686
3.1016307 1.7743654 0.7055496
-3.1036282 1.8284168 0.71902585
-3.0983446 1.8308488 0.7344873
-2.9059577 1.8207865 0.71980274
-2.8969855 1.8195353 0.73785436
2.8881559 1.8160224 0.72199678
2.910471 1.8197608 0.7201153
3.0991914 1.8384082 0.70496666
3.1020999 1.8259075 0.70544803
-3.103467 1.8712883 0.72631252
-3.0983891 1.8754613 0.73393351
-2.9120243 1.8763219 0.74313146
-2.897049 1.87752 0.74058568
2.8874741 1.873524 0.73307288
2.9105949 1.8864595 0.72804618
3.0991926 1.8871274 0.71228099
3.1022596 1.8789365 0.70662296
-3.1018445 1.9335605 0.70481598
-3.0980563 1.9182882 0.71876335
-2.90516 1.9388417 0.7097553
-2.896699 1.9270747 0.73640758
2.8871751 1.910901 0.73972046
2.9129229 1.9205852 0.73421514
3.0991936 1.9369484 0.71949226
3.1025212 1.9316134 0.70693642
-3.1005795 1.9675112 0.70930064
-3.0981066 1.9696665 0.73276722
-3.0287659 1.9999046 0.70660681
-2.9739978 1.9997939 0.70747876
-2.9069803 1.9654151 0.70557064
-2.8967853 1.9685478 0.73828304
2.8877871 1.9692737 0.7378335
2.9083166 1.9776235 0.72124445
2.9645426 1.9998156 0.72341156
3.0125222 1.999802 0.71960562
3.0991964 1.9872022 0.7258805
3.102602 1.9792482 0.70757848
-3.1009583 2.0000348 0.71291357
-3.0889745 2.000077 0.70611024
-3.021575 2.0001762 0.71660292
-2.9698184 2.0001111 0.7191627
-2.9239936 2.0000529 0.7213167
-2.8969851 2.0019855 0.7268222
-0.51151013 2.0425265 0.71943688
-0.47495762 2.0444622 0.73594594
-0.42208362 2.0448141 0.74093294
-0.37602884 2.0439136 0.73999733
-0.33199355 2.0447259 0.74214745
-0.27159104 2.0439017 0.7391625
-0.22303155 2.0444131 0.7391907
-0.17749697 2.0442765 0.74067622
-0.12567475 2.0444021 0.74300647
-0.076147877 2.044239 0.7435832
-0.021536194 2.0440769 0.73933142
0.029884549 2.04388 0.741373
0.082722969 2.0439138 0.74223465
0.13247696 2.0437663 0.74336332
0.18477201 2.0432096 0.74464846
0.23848855 2.0434947 0.74152637
0.29207122 2.0429101 0.74214792
0.34380206 2.0428472 0.74341071
0.36203611 2.0426645 0.72868049
0.40319222 2.0425346 0.74481833
0.4706659 2.0393844 0.72387278
2.8876781 2.0080047 0.71505171
2.930016 2.0007036 0.74552083
2.9849653 2.0006728 0.74421299
3.0436826 2.0007341 0.7497679
-0.52657872 2.0759673 0.71045232
0.47900951 2.0885723 0.70715469
-0.52658582 2.1177082 0.71087933
0.4755446 2.1019568 0.70697057
-0.52477765 2.1770577 0.72824109
0.47545928 2.1689386 0.70412946
-0.5265885 2.2248163 0.71174312
0.4755691 2.2367535 0.70406771
-0.52532321 2.2651882 0.70898747
0.47625792 2.2546592 0.72324717
-0.52658629 2.3337545 0.71381664
0.4755792 2.3050036 0.70414484
-0.52554154 2.3743544 0.72956157
0.47565925 2.3730226 0.7043705
-0.52658629 2.418498 0.71652758
0.47572529 2.4380603 0.70552462
-0.52658677 2.4732285 0.71788985
0.47571123 2.4553671 0.71690762
-0.52658725 2.5283937 0.7194196
0.47577584 2.5094767 0.70526725
-0.52658981 2.5728054 0.72188747
0.47583356 2.5771933 0.70609355
-0.52659333 2.6265576 0.72352451
0.47584471 2.6358178 0.70492196
-0.52658832 2.6723595 0.72476447
0.47606224 2.6563587 0.71333051
-0.52658975 2.723845 0.7273736
0.47589681 2.7102618 0.70433414
-0.52658063 2.7709451 0.73075366
0.47597021 2.7774329 0.70558286
-0.52658427 2.8287156 0.73327053
0.47596905 2.8353133 0.70874387
-0.52658451 2.8762951 0.7344178
0.47624904 2.8603828 0.71369606
-0.52502781 2.9180276 0.72023141
0.47605819 2.910502 0.70419323
-0.526586 2.9783366 0.74247336
0.4761146 2.9769087 0.70607859
-0.52481496 3.0156608 0.72205085
-0.48714638 3.0338831 0.74163944
-0.42850018 3.0381484 0.73176098
-0.38273886 3.0341618 0.7380017
-0.31795108 3.0371346 0.74357569
-0.28400618 3.0339212 0.74392843
-0.22321124 3.0352206 0.73589933
-0.17988163 3.0350957 0.73889661
-0.12380469 3.0320778 0.70713747
-0.064563721 3.0313931 0.70869493
-0.016525429 3.0317581 0.71211362
0.031968798 3.0319679 0.71046966
0.092199437 3.0333965 0.71304119
0.12505105 3.03126 0.72513616
0.17467076 3.0316734 0.73410511
0.23027974 3.0335231 0.72383434
0.27509034 3.0362291 0.72468352
0.32813951 3.0356205 0.72545683
0.36570838 3.0321178 0.73851597
0.42668337 3.0357461 0.73244512
0.47624099 3.0097718 0.72063756
0.1445719 -2.8526847 0.77535313
0.18144128 -2.8510242 0.76912016
0.226245 -2.8547277 0.78246319
0.26282406 -2.8554296 0.78745902
-0.0021042824 -2.8060884 0.76982129
0.031011697 -2.810621 0.76518726
0.090600349 -2.8290548 0.76249421
0.13284028 -2.838237 0.78124291
0.17945582 -2.8441672 0.76113129
0.23811617 -2.8468866 0.76921958
0.2793192 -2.8462439 0.77388024
0.314973 -2.8425488 0.77271366
0.38339549 -2.8240728 0.77955705
0.44324678 -2.8022218 0.78949618
-0.067607634 -2.7675846 0.7688455
-0.026592158 -2.7927172 0.76376426
0.44724205 -2.7981143 0.77645171
0.45444667 -2.7949214 0.7761482
0.51078701 -2.7618299 0.79422635
-0.11708046 -2.7279005 0.7578789
-0.095435224 -2.7461774 0.77260053
0.53569651 -2.7406995 0.76182503
0.55641806 -2.7246747 0.79371178
-0.1720483 -2.6691296 0.76344216
-0.14813514 -2.6967783 0.76190054
0.59388912 -2.6866021 0.78918058
0.6194011 -2.6546578 0.77843261
-0.20820773 -2.6173437 0.76531732
-0.1951295 -2.6378016 0.76373029
0.634543 -2.6334863 0.79133832
0.6521973 -2.6028547 0.79038775
-0.2298544 -2.5772166 0.76257282
0.66771668 -2.5761905 0.78259349
-0.25347251 -2.5204575 0.76185822
-0.24383059 -2.5466022 0.76056433
0.68878162 -2.5266089 0.78308988
-0.26781678 -2.4691403 0.75896782
0.69885582 -2.4957879 0.75699425
0.70412946 -2.476892 0.77202272
-0.27687642 -2.4180608 0.76465058
0.71283871 -2.4328589 0.77386361
-0.27993101 -2.3809769 0.76726323
0.71854854 -2.3651426 0.76880836
-0.27864066 -2.3207874 0.76017565
0.71795118 -2.323679 0.76486182
-0.27035376 -2.2585945 0.76249659
0.71251696 -2.2756135 0.76557922
-0.2584421 -2.2118392 0.76054931
0.69762737 -2.2112484 0.76471722
0.70533192 -2.2388635 0.76350158
-0.25228512 -2.1932249 0.76881719
-0.23988824 -2.1608591 0.76103425
0.6840148 -2.1720243 0.76691037
-0.2148802 -2.1106477 0.77119595
0.64865148 -2.1004624 0.78346336
0.66234934 -2.1245129 0.76559573
-0.2066609 -2.0963452 0.75949448
-0.18271831 -2.0655408 0.76593292
0.63927722 -2.0849831 0.77143955
0.65341049 -2.095499 0.78665662
-2.9007931 -2.0004354 0.76826108
-2.8967011 -2.0056016 0.76557773
-0.16034576 -2.0336301 0.77319849
-0.14093119 -2.0129709 0.76522571
0.58410865 -2.014256 0.77447939
0.60835052 -2.0416794 0.77150118
2.8976483 -2.0013039 0.77582181
2.9281342 -2.0012617 0.75191283
2.9756324 -2.0014203 0.75257921
3.0199039 -2.0015738 0.75261623
3.090699 -2.0009153 0.76756358
3.1007426 -2.0017421 0.77616978
-3.1013446 -1.9893674 0.75621545
-3.0769746 -1.9908929 0.76959431
-3.0347123 -1.9915411 0.75458801
-2.9640036 -1.9852757 0.77921289
-2.9195757 -1.9850734 0.77614254
-2.8978384 -1.9559087 0.76948613
-0.1081522 -1.9818163 0.7593565
-0.080226466 -1.9579175 0.75804639
0.53287834 -1.9666977 0.7833752
0.55433321 -1.9845861 0.77732074
2.899231 -1.9888122 0.75289476
2.9027834 -1.962512 0.76101857
2.9944682 -1.999826 0.75223386
3.0287049 -1.9999125 0.75717199
3.0966315 -1.9784495 0.78398788
-3.1014171 -1.9278653 0.75622666
-3.0990598 -1.9327359 0.76037157
-2.9008427 -1.9359486 0.77139354
-2.8976769 -1.933393 0.7721734
-0.055523958 -1.9354906 0.75299507
-0.023578838 -1.914914 0.75474429
0.0019871527 -1.9026051 0.76692283
0.43419415 -1.904003 0.78914917
0.46308017 -1.9192733 0.79239511
0.50539237 -1.9456487 0.78637338
2.8991132 -1.9368141 0.75169283
2.9027481 -1.9113808 0.77612042
3.0967753 -1.9250826 0.77842385
-3.1010389 -1.8745679 0.76215088
-3.0990348 -1.878608 0.76652187
-2.9010413 -1.8856519 0.76734853
-2.8976572 -1.8937169 0.77141619
0.020246917 -1.8954389 0.76423585
0.077294953 -1.8733791 0.75838828
0.10829409 -1.8648593 0.75664282
0.18336701 -1.8536665 0.75832969
0.21024352 -1.8522959 0.75928569
0.25829995 -1.8536451 0.76608157
0.31540921 -1.8615024 0.76238549
0.38785651 -1.8816898 0.78946334
0.41220587 -1.892823 0.79224145
2.8991075 -1.8857564 0.75218046
2.9029026 -1.8672179 0.78390586
3.0974307 -1.8696057 0.78147465
-3.1005955 -1.8321764 0.75802112
-3.0988238 -1.8253229 0.76326251
-2.9012117 -1.8321753 0.76526082
-2.8974912 -1.8403884 0.76676714
0.19123974 -1.8496819 0.77453887
0.22015451 -1.8487096 0.77291501
0.25913048 -1.8496188 0.77500159
2.8990648 -1.8302982 0.7520684
2.9030538 -1.8441737 0.79338014
3.0965412 -1.8168406 0.77656651
-3.1001358 -1.7689588 0.76039761
-3.0993657 -1.7781633 0.77089375
-2.9019594 -1.7805378 0.79124343
-2.8973651 -1.7831092 0.76620317
2.8987827 -1.7821057 0.75351119
2.90311 -1.7860599 0.79746234
3.0964608 -1.7662061 0.77030063
-3.1000714 -1.727881 0.7614783
-3.0985403 -1.7243836 0.78693634
-2.9019284 -1.7293246 0.7947576
-2.8971512 -1.7215331 0.76159328
2.8987417 -1.7257352 0.75227916
2.9033694 -1.718178 0.76156485
3.0998917 -1.7415042 0.79878795
3.1034012 -1.7052917 0.76473051
-3.1001203 -1.6825234 0.75847441
-3.0988379 -1.6845098 0.77855015
-2.9018795 -1.6778129 0.79362929
-2.8971541 -1.6702487 0.75635362
2.8984532 -1.6771901 0.75273281
2.9035065 -1.688586 0.75396222
3.0998826 -1.6914239 0.79290634
-3.1000619 -1.6429569 0.75983131
-3.0988441 -1.6232762 0.76534224
-2.9018354 -1.628195 0.79157233
-2.8970966 -1.6381319 0.75398284
2.8984733 -1.6157703 0.75360638
2.9037194 -1.6367985 0.76012307
3.0998948 -1.6422107 0.7871325
3.1018574 -1.6111617 0.77727818
-3.0988514 -1.5751125 0.76330876
-2.9016795 -1.5748606 0.79591238
-2.8969517 -1.5755355 0.75334144
2.8985269 -1.5713027 0.75527143
2.9039125 -1.5734098 0.77658826
3.0998933 -1.5937903 0.78145033
3.1034589 -1.5800183 0.76453656
-3.0990605 -1.5303853 0.76180851
-2.9016514 -1.5252869 0.79415631
-2.8983841 -1.5205052 0.75335747
2.8995738 -1.5178375 0.78620827
2.9040215 -1.5234911 0.78934711
3.0998936 -1.5411978 0.77528864
3.1034627 -1.5480783 0.76269966
-3.1001534 -1.4858657 0.75223625
-3.0989285 -1.4810913 0.76021504
-2.9016314 -1.4815109 0.79360032
-2.8985357 -1.4777274 0.75410956
2.8994579 -1.4627528 0.78436697
2.9042063 -1.4870808 0.7975353
3.0998988 -1.4946642 0.76983857
3.1023269 -1.467324 0.77166444
-3.1000125 -1.4348279 0.75363362
-3.0983667 -1.4221845 0.76292652
-2.9015963 -1.4247313 0.79446286
-2.8987131 -1.4206975 0.75319362
2.8993607 -1.4098177 0.78127766
2.9043956 -1.4408228 0.79865009
3.0998998 -1.4440074 0.7639119
3.102267 -1.4262197 0.75723463
-3.1000171 -1.3877892 0.75516307
-3.098527 -1.3778189 0.76170832
-2.9015863 -1.367594 0.79297644
-2.8988872 -1.3703396 0.75308257
2.8992968 -1.3722634 0.7812351
2.904459 -1.394697 0.78393883
3.0999026 -1.3735892 0.75506628
3.1025081 -1.3559541 0.79459506
-3.1000404 -1.3409592 0.75703311
-3.0984845 -1.3277769 0.76250678
-2.9015636 -1.3213282 0.79268575
-2.8990369 -1.3273612 0.75394833
2.899364 -1.3232865 0.78509414
2.9045362 -1.3156278 0.79581869
3.0999031 -1.344883 0.75125718
3.1021535 -1.3441594 0.77861571
-3.1000261 -1.2862005 0.75862306
-3.0986106 -1.2862091 0.78119671
-2.9015179 -1.2842979 0.78905028
-2.8992288 -1.2705373 0.75330573
2.8996387 -1.2767069 0.77944303
2.9024708 -1.2750205 0.786708
3.0970402 -1.2828803 0.76740295
3.1007299 -1.2608892 0.77790737
-3.1000268 -1.2419001 0.76024938
-3.0983062 -1.2121704 0.78696966
-2.9014578 -1.2265449 0.78643757
-2.8993902 -1.2201467 0.75345016
2.8998454 -1.2247982 0.75839472
2.9048271 -1.2310883 0.75198841
3.0985925 -1.2209688 0.79026264
3.1006062 -1.2147014 0.76477849
-3.1003923 -1.1828746 0.79365444
-3.0983374 -1.1685576 0.78521079
-2.9014125 -1.1810975 0.78383583
-2.8995347 -1.1782213 0.75454009
2.8996849 -1.1821179 0.76132905
2.9039414 -1.1730076 0.76397693
3.0980995 -1.196511 0.76014102
3.1010029 -1.1745925 0.75921339
-3.1029572 -1.1082844 0.76946378
-3.0982747 -1.1293094 0.78675753
-2.9013643 -1.1266749 0.77963293
-2.8994021 -1.1133064 0.75208229
2.8995242 -1.132201 0.75871336
2.905396 -1.1045254 0.76508677
3.0939546 -1.1219349 0.78455031
3.1027915 -1.1261008 0.76842344
-3.0983901 -1.069122 0.76227558
-2.9000793 -1.0670075 0.7586782
-2.8998814 -1.0723312 0.75477719
2.8998919 -1.0576215 0.78062338
2.9048991 -1.0579087 0.7804783
3.0988755 -1.0816376 0.79203117
3.1006067 -1.0612465 0.78331512
-3.1043766 -1.0298028 0.77004594
-3.0980399 -1.0196321 0.77206039
-2.9000952 -1.0168508 0.75700951
-2.8991876 -1.0288988 0.75302684
2.8997567 -1.0212332 0.75873762
2.9054866 -1.0209677 0.79626274
3.0937314 -1.0327277 0.77328026
3.1006579 -1.0138675 0.76285148
-3.1077538 -0.9763788 0.79105014
-3.0980675 -0.97555327 0.76992142
-2.9002452 -0.97521091 0.75530851
-2.8990264 -0.95696044 0.75685143
2.8995285 -0.96738315 0.76678556
2.9055338 -0.96347356 0.79328489
3.0940251 -0.97921336 0.78813571
3.1014903 -0.98318744 0.75874579
-3.1050723 -0.94698083 0.75875753
-3.0978241 -0.91842771 0.78126228
-2.9003916 -0.91974926 0.75609016
-2.8991947 -0.94566977 0.75534058
2.8993587 -0.92962098 0.76550698
2.9053841 -0.91446763 0.78273511
3.0990529 -0.92172796 0.79017466
3.1007085 -0.90803564 0.78429031
-3.1074486 -0.88265526 0.77474356
-3.0978384 -0.86806202 0.7890476
-2.9005308 -0.87707925 0.75735742
-2.8990726 -0.87445694 0.75816685
2.8991148 -0.87535483 0.75755787
2.9053583 -0.87917423 0.79084063
3.0941176 -0.89490533 0.78033447
3.1007953 -0.86195683 0.75931925
-3.1068025 -0.81934428 0.7693609
-3.0977998 -0.8299644 0.78050625
-2.9007702 -0.82477951 0.75734663
-2.8980405 -0.81625235 0.75061375
2.8988659 -0.82144809 0.76650965
2.905725 -0.82263827 0.79158485
3.0945635 -0.81213099 0.78331554
3.1028116 -0.8286342 0.75971723
-3.1081386 -0.75855684 0.77968651
-3.0975111 -0.78336358 0.79090822
-2.9009039 -0.78553885 0.75959849
-2.8990088 -0.79506838 0.76096278
2.8986993 -0.78327399 0.76588762
2.9044766 -0.77503186 0.78313261
3.0964398 -0.79009771 0.78970981
3.1008453 -0.76222348 0.77603865
-3.1075852 -0.73603195 0.77105701
-3.097527 -0.72951114 0.78927726
-2.9004827 -0.72024709 0.75532049
-2.8989687 -0.71585125 0.76537925
2.8984642 -0.73096448 0.75892073
2.9047418 -0.74131632 0.7932179
3.0992522 -0.72486395 0.79474902
3.1008296 -0.74083376 0.76012021
-3.1068411 -0.69417834 0.76910216
-3.0975986 -0.68939805 0.79387742
-2.9013062 -0.67142326 0.7600646
-2.8989925 -0.67080337 0.75350595
2.8982232 -0.67828441 0.76001406
2.9033241 -0.68030506 0.78997439
3.0999146 -0.67422491 0.79886925
3.1010671 -0.65661883 0.78315258
-3.1069169 -0.63067502 0.76510876
-3.0975595 -0.63808835 0.77254546
-2.9007189 -0.62900662 0.75826132
-2.8987136 -0.634615 0.77025098
2.8980293 -0.63407397 0.75720429
2.9063678 -0.6252417 0.75557017
3.0999136 -0.64629233 0.79472709
3.1008649 -0.64331186 0.78268766
-3.1070504 -0.56960422 0.77364206
-3.0977306 -0.57819217 0.76739001
-2.9007711 -0.57676095 0.76077944
-2.898634 -0.55166978 0.773718
2.8977389 -0.57041025 0.76598096
2.9065518 -0.57751369 0.76186728
3.0999162 -0.59498489 0.78713799
3.1012783 -0.56300676 0.77334332
-3.0975459 -0.51961547 0.77699566
-2.9008687 -0.53363752 0.75994408
-2.8988266 -0.54776704 0.76493496
2.8975298 -0.52362812 0.76182348
2.9068007 -0.51520091 0.76801562
3.0999057 -0.54493594 0.77974713
3.1010413 -0.54232705 0.76667589
-3.1073518 -0.47427368 0.76535571
-3.0973258 -0.47904915 0.77632046
-2.9005394 -0.47695294 0.76138401
-2.8986664 -0.46627593 0.77955222
2.8986521 -0.48200297 0.75917888
2.9066968 -0.4685033 0.77683264
3.0999184 -0.49594921 0.77252299
3.1012497 -0.46648026 0.77446884
-3.1002851 -0.43111193 0.77638984
-3.0971594 -0.43948752 0.77587056
-2.9011712 -0.42032361 0.76484382
-2.8987131 -0.4190996 0.76193571
2.8990328 -0.42696628 0.76498371
2.9067078 -0.42394364 0.78015745
3.0999198 -0.41101655 0.75861204
3.1011395 -0.44023097 0.76406038
-3.1001096 -0.38565755 0.78062856
-3.0973115 -0.39425325 0.76051456
-2.9011805 -0.3809458 0.76460296
-2.8986778 -0.3779906 0.78572154
2.898438 -0.36859679 0.76781893
2.9071774 -0.36250049 0.79059863
3.0999198 -0.39417323 0.7560935
3.1011338 -0.37755895 0.76810944
-3.1000564 -0.33007386 0.78408557
-3.0983133 -0.32020611 0.787251
-2.9007063 -0.32158998 0.76610994
-2.8986187 -0.3010841 0.77505302
2.898314 -0.31844592 0.77329469
2.9071519 -0.32657835 0.79092443
3.0999215 -0.34762788 0.7509129
3.101254 -0.33446965 0.77256989
-3.1000433 -0.2834819 0.78671026
-3.0969911 -0.25686818 0.7680558
-2.9016407 -0.26359981 0.76950967
-2.8986058 -0.28999218 0.79015166
2.8982058 -0.27034432 0.77570772
2.9077706 -0.28257632 0.79031897
3.0995421 -0.27398843 0.79416633
3.1012688 -0.2831015 0.77276915
-3.1000385 -0.23668917 0.78911912
-3.0971539 -0.22443169 0.79465938
-2.901402 -0.2339503 0.769759
-2.8984392 -0.20416765 0.79259622
2.8976893 -0.22257499 0.75984728
2.9072304 -0.23341398 0.79061085
3.0994341 -0.23494303 0.78671694
3.1012752 -0.2195574 0.78098178
-3.1002324 -0.18768516 0.794954
-3.0983856 -0.17584518 0.7722978
-2.9017849 -0.18029244 0.7723195
-2.8985929 -0.18440115 0.79229856
2.8977702 -0.17309366 0.7616542
2.9078376 -0.18500078 0.78896141
3.0997286 -0.16668792 0.77289712
3.1022184 -0.17372125 0.77374226
-3.1011648 -0.13684024 0.78440118
-3.0969174 -0.11796385 0.78642642
-2.9015365 -0.13417786 0.77295363
-2.8983605 -0.11391721 0.79743505
2.8977547 -0.12649468 0.76695913
2.9070909 -0.12907898 0.79055083
3.0998254 -0.11892955 0.77213979
3.1014667 -0.11341763 0.77254033
-3.1043334 -0.065950662 0.76516402
-3.0973487 -0.078602731 0.7853322
-2.9010663 -0.074598171 0.77513295
-2.8983402 -0.060663961 0.77857721
2.8976827 -0.079833202 0.77337569
2.9072249 -0.078293614 0.79069364
3.099823 -0.071871802 0.77306044
3.1030331 -0.076455295 0.77435815
-3.1036239 -0.032080293 0.77410531
-3.0969539 -0.01476963 0.77173793
-2.9022031 -0.016592138 0.77826577
-2.8983855 -0.033115037 0.79562145
2.8987861 -0.017216101 0.76824105
2.9040985 -0.028735913 0.77833378
3.0998783 -0.023872349 0.7734766
3.1013074 -0.012247503 0.78109276
-3.103653 0.029527009 0.77041245
-3.0974402 0.031263821 0.77674878
-2.9018884 0.02624644 0.77931488
-2.8983474 0.046567757 0.79235077
2.8974304 0.020192947 0.79015994
2.9050457 0.018056715 0.78031635
3.0999279 0.021277064 0.79798275
3.1001303 0.027638284 0.7733593
-3.1006823 0.067437917 0.77179313
-3.0969725 0.076236233 0.76643819
-2.9024348 0.075298965 0.78197336
-2.8982317 0.059682637 0.79391581
2.8979788 0.065788999 0.77776551
2.9047992 0.069348708 0.78682905
3.099926 0.052380055 0.79248691
3.1000481 0.090528384 0.77867913
-3.1015 0.12762815 0.77518666
-3.0967774 0.11902353 0.77316105
-2.9020581 0.11784465 0.78311515
-2.8982749 0.13692707 0.79721093
2.8977382 0.11862709 0.78011966
2.9046712 0.12534179 0.78359932
3.0999284 0.10386945 0.78340781
3.1001458 0.13867645 0.771451
-3.1007318 0.17252888 0.77836084
-3.0969038 0.17286298 0.77486813
-2.9013958 0.1783103 0.78581923
-2.8980236 0.18973438 0.78981292
2.8976521 0.17160085 0.78694224
2.9044127 0.17412226 0.79089433
3.0999312 0.18667588 0.76763117
3.1001525 0.17513725 0.76953548
-3.1002243 0.22328317 0.78067219
-3.0966191 0.22406885 0.78536379
-2.9029341 0.23578691 0.78856432
-2.8981752 0.22141553 0.7964313
2.8980231 0.23664492 0.7827633
2.9038815 0.22509687 0.78664982
3.0999317 0.20336071 0.76429677
3.1001778 0.2185652 0.76830196
-3.1000485 0.2688396 0.78119886
-3.0964298 0.27144909 0.78540909
-2.9022908 0.26982343 0.79009694
-2.8980308 0.29128882 0.79615903
2.8960211 0.28221136 0.77353501
2.9047487 0.26973128 0.7916168
3.0999327 0.25246879 0.75571442
3.1001046 0.2767067 0.76864803
-3.100049 0.3179096 0.78359413
-3.0966294 0.32026502 0.77487504
-2.9030647 0.32446557 0.79268742
-2.8980467 0.31721959 0.79706275
2.8950543 0.31577024 0.7657367
2.9058647 0.33243456 0.76917827
3.0999322 0.30148226 0.75089687
3.1003363 0.32680941 0.77864617
-3.1000962 0.36635712 0.78963757
-3.0965688 0.36641109 0.78232872
-2.9024863 0.37133747 0.79479975
-2.8979712 0.36669087 0.79804271
2.8965046 0.36589438 0.77337122
2.905432 0.38456702 0.76901543
3.0988131 0.38052568 0.76431835
3.1003609 0.38748395 0.78953183
-3.1000588 0.41107443 0.77536547
-3.0962157 0.42701745 0.77936649
-2.9033406 0.42082226 0.79729879
-2.8981042 0.41386402 0.79853731
2.8964872 0.42554572 0.78174126
2.9078562 0.42800802 0.76271296
3.0989265 0.42624533 0.75816345
3.1004369 0.42763078 0.78463817
-3.1001048 0.46478957 0.77538502
-3.096498 0.47673601 0.78312176
-2.9033105 0.46437573 0.79751086
-2.8976891 0.46049595 0.79885632
2.8946476 0.48362321 0.78252739
2.9088075 0.46481818 0.76623815
3.0994279 0.49061525 0.78441179
3.1004374 0.46838772 0.78266943
-3.1000648 0.52074653 0.78098041
-3.0964618 0.52994955 0.78134394
-2.906435 0.52398658 0.79608667
-2.8984723 0.53237647 0.75438797
2.8970895 0.52784455 0.76613367
2.9096069 0.52261174 0.77212983
3.0999379 0.50291049 0.79917288
3.1005001 0.529181 0.7838378
-3.10005 0.56215888 0.78052998
-3.0970576 0.57935148 0.77293432
-2.9066489 0.57495821 0.79665351
-2.8985758 0.5729 0.76007509
2.8931081 0.57556885 0.77828014
2.9088705 0.57441419 0.77787894
3.0999389 0.55235815 0.78913087
3.1002944 0.56838912 0.78283608
-3.1001654 0.61515391 0.7787987
-3.0969639 0.61580545 0.78860772
-2.9068422 0.62440252 0.79323852
-2.8984957 0.61845887 0.76652235
2.8965712 0.61258727 0.77086705
2.9098237 0.6382581 0.78050464
3.0999401 0.62745988 0.77218521
3.1005998 0.62227952 0.76322854
-3.1000435 0.66334987 0.77906203
-3.0976276 0.66733652 0.77535307
-2.9070771 0.67695737 0.79423171
-2.8984265 0.67007351 0.77388024
2.8958199 0.68173343 0.77968323
2.9095259 0.6689719 0.78452665
3.0999303 0.65190589 0.76727128
3.1003413 0.67625117 0.76952171
-3.1000767 0.71468407 0.78367233
-3.0974131 0.72057372 0.77506298
-2.9073293 0.73387218 0.79298747
-2.8983431 0.73211122 0.7832464
2.8919716 0.73404634 0.78310084
2.9104264 0.72922921 0.79072899
3.0999365 0.70292985 0.75704658
3.1004236 0.72203386 0.76320767
-3.1000223 0.76212007 0.78747368
-3.097486 0.7758956 0.77958506
-2.9075243 0.78516448 0.7910313
-2.8981936 0.77776122 0.78935236
2.896354 0.78432292 0.77860677
2.9093266 0.7681253 0.79259318
3.0999441 0.7513234 0.75105804
3.1008396 0.77703846 0.78823662
-3.1000214 0.8139168 0.78884965
-3.0970531 0.83110356 0.78164142
-2.907918 0.82949638 0.78978908
-2.8982184 0.82475352 0.79494369
2.8946013 0.8136996 0.76837772
2.9103727 0.82373273 0.78237408
3.0991368 0.8456099 0.76119494
3.100816 0.82256663 0.78380907
-3.100028 0.87881088 0.77066767
-3.0975838 0.88796377 0.78266674
-2.9078948 0.87309301 0.78893155
-2.8991585 0.87692368 0.75748873
2.894876 0.88478768 0.77580822
2.9076009 0.88196492 0.77325428
3.0999405 0.86934042 0.7994718
3.1004467 0.88043606 0.79075468
-3.1000209 0.91538143 0.75216258
-3.0974827 0.93998843 0.78940254
-2.9086127 0.91691637 0.7875151
-2.8962715 0.93689626 0.75476623
2.8924119 0.92027968 0.77528465
2.9095864 0.91728789 0.78388238
3.0999475 0.9438861 0.78082818
3.1006074 0.92593938 0.78532219
-3.1000218 0.96020746 0.75305086
-3.0967226 0.97708571 0.76582211
-2.9081917 0.96274984 0.79281372
-2.8991542 0.96133554 0.76150525
2.8947892 0.97756076 0.78158587
2.9080048 0.95918024 0.77714938
3.0999475 0.95222598 0.77882981
3.1005051 0.97883672 0.76886714
-3.1000221 1.0129752 0.75489205
-3.0987623 1.0243535 0.78066516
-2.9089942 1.0187544 0.79470527
-2.8990874 1.0381471 0.76888239
2.8927805 1.0115063 0.77594292
2.9082513 1.0113896 0.78169841
3.0999501 1.0364461 0.75815964
3.1006885 1.0242263 0.76525313
-3.1000896 1.0653572 0.75689203
-3.0986938 1.0650058 0.77727115
-2.9087543 1.079618 0.78759646
-2.8971386 1.0721227 0.77327234
2.8927431 1.0679359 0.78348172
2.9058561 1.0805686 0.7798934
3.0999479 1.0522413 0.75464565
3.1011412 1.0769124 0.76511133
-3.1000428 1.1101341 0.757837
-3.0969412 1.1187689 0.77097607
-2.909122 1.1240742 0.78650224
-2.8991375 1.123703 0.77906609
2.8921261 1.1247313 0.7902211
2.9049296 1.1208168 0.77019751
3.0999231 1.1024523 0.75109732
3.1011932 1.1268235 0.77764559
-3.100024 1.1589211 0.75955617
-3.0948315 1.158391 0.77709365
-2.9093294 1.1751237 0.79239845
-2.895381 1.179353 0.76524276
2.8914225 1.1797149 0.78215736
2.9062436 1.1697142 0.77618921
3.0991323 1.1650547 0.7607342
3.1026924 1.1610373 0.78189892
-3.1013899 1.2192619 0.7697944
-3.0984161 1.2239809 0.77850407
-2.9092007 1.2182924 0.78795087
-2.8990839 1.2146596 0.78763014
2.8898406 1.2305174 0.78077519
2.9061952 1.2135978 0.77397603
3.0991559 1.2199628 0.75799435
3.1019995 1.2237509 0.78835928
-3.1019325 1.2737092 0.76967508
-3.0956635 1.2870212 0.78749239
-2.9099195 1.2639132 0.79063362
-2.8971004 1.2744409 0.76155245
2.8895309 1.2619693 0.78229392
2.9031067 1.2665017 0.77010989
3.0991755 1.2712471 0.76082838
3.1027169 1.2579696 0.75985664
-3.1025333 1.3193492 0.76602805
